# .PCD v0.7 - Point Cloud Data file format
VERSION 0.7
FIELDS x y z
SIZE 4 4 4
TYPE F F F
COUNT 1 1 1
WIDTH 289
HEIGHT 1
VIEWPOINT 0 0 0 1 0 0 0
POINTS 289
DATA ascii
-81.257744 -6.7813945 -40.624836
-78.882851 -6.513895 -40.923912
78.696831 -6.5423512 -40.778717
81.208374 -6.6030369 -40.784691
-82.185745 -13.037649 -33.096931
-77.854736 -13.067474 -33.063206
77.739304 -13.059229 -33.007236
82.202171 -13.111038 -33.016541
-91.286682 -1.5875856 -31.908733
-84.934113 -4.7744737 -35.523014
-75.005737 -4.7532105 -35.436195
-68.75367 -1.7570877 -31.584387
68.861832 -1.9739128 -31.710552
75.039444 -4.9106336 -35.347282
85.022278 -4.8479691 -35.335892
91.271576 -1.7434324 -31.674109
-93.011322 2.5999134 -31.531591
-85.167648 2.400053 -32.319427
-74.99086 2.3703115 -32.369247
-67.023544 2.6611817 -31.61632
67.127739 2.519413 -31.730387
75.164658 2.5253577 -32.233513
85.133972 2.3782065 -32.334076
92.774261 2.4386272 -31.667694
-82.0672 -23.138103 -23.157106
-77.77523 -23.055925 -23.033371
77.749619 -23.024681 -22.980404
82.185394 -23.109268 -23.064129
-91.296494 -11.583797 -21.767628
-85.817657 -15.420731 -25.273645
-74.192474 -15.347179 -25.399179
-68.722015 -11.601808 -21.82951
68.829239 -11.763691 -21.716089
74.358871 -15.508446 -25.443403
85.749786 -15.420404 -25.426388
91.123627 -11.717266 -21.843771
-100.52628 -0.43064585 -20.541101
-94.130775 -4.4623394 -24.64851
-88.795563 -8.1512909 -28.114019
-71.150047 -8.1194019 -28.051624
-65.66629 -4.4677935 -24.307388
-59.542374 -0.45204964 -20.616219
59.529049 -0.57817101 -20.471251
65.609001 -4.385273 -24.378979
71.186424 -7.8849859 -28.215836
88.832268 -8.0980539 -27.992006
94.107986 -4.5888491 -24.479956
100.65629 -0.52604216 -20.261841
-102.53391 6.3188047 -23.359533
-96.064247 5.2159052 -26.811127
-85.194473 7.2661557 -27.280588
-74.903183 7.1960416 -27.398384
-64.190147 5.455214 -26.792551
-57.276215 6.3900151 -23.302399
57.259026 6.3947325 -23.233393
63.972168 5.2679105 -26.809845
74.982498 7.2584953 -27.290188
85.094688 7.3502612 -27.175943
96.014046 5.1840601 -26.942541
102.67078 6.3764729 -23.205595
-110.46165 13.894707 -20.540199
-104.77158 12.365994 -22.095737
-95.168907 12.344268 -22.426336
-84.85379 12.333773 -22.425547
-75.071533 12.457535 -22.297602
-64.962425 12.411983 -22.380367
-55.226707 12.390706 -22.06007
-49.456665 14.297582 -20.435799
49.342472 14.215798 -20.52969
55.206741 12.404119 -21.995064
65.046646 12.383868 -22.375607
75.084625 12.427401 -22.331364
85.032661 12.522065 -22.27796
94.816322 12.268304 -22.440849
104.7298 12.307506 -22.019432
110.83431 14.584644 -20.473707
-82.207245 -33.004299 -13.092089
-77.828293 -33.001461 -13.063682
77.616287 -32.735188 -13.064626
82.086945 -33.05645 -13.188186
-91.061127 -21.848553 -11.872429
-85.813766 -25.463762 -15.266692
-74.255745 -25.459394 -15.419181
-68.81913 -21.827129 -11.755548
68.904655 -21.809698 -11.91071
74.146805 -25.470661 -15.244169
85.863327 -25.335531 -15.263654
91.108574 -21.677916 -11.777661
-100.55747 -10.238639 -10.688993
-94.100479 -14.448036 -14.692249
-88.706314 -18.273743 -18.148214
-71.391937 -18.256594 -18.165398
-65.807259 -14.562992 -14.414659
-59.622795 -10.558873 -10.623129
59.638264 -10.595561 -10.608316
65.869377 -14.544217 -14.578815
71.346283 -18.149696 -18.163147
88.780144 -18.201174 -18.021315
94.072289 -14.419466 -14.689167
100.4799 -10.502962 -10.534385
-102.60206 -3.7328064 -13.538041
-97.682533 -6.9265089 -16.917732
-62.31638 -6.8430262 -16.976942
-57.347225 -3.6916289 -13.437619
57.40675 -3.6258433 -13.511032
62.279377 -6.8622684 -16.775202
97.893127 -6.7815619 -16.609219
102.55044 -3.7989311 -13.467196
-111.63528 7.7884145 -12.414388
-106.29886 4.0971632 -15.811316
-53.595104 4.2256646 -15.800815
-48.422714 7.5438948 -12.226231
48.310497 7.7035861 -12.125504
53.735413 4.0875287 -15.800203
106.46288 4.1674714 -15.676425
111.65856 7.7831316 -12.26727
-112.59103 14.232707 -15.987064
-105.58172 16.545103 -17.404894
-94.917969 17.114883 -17.438793
-84.733711 17.270685 -17.304985
-75.01046 17.32391 -17.25646
-65.014229 17.361374 -17.226357
-54.567913 16.746298 -17.388182
-47.342831 14.483224 -16.143475
47.318382 14.318253 -15.859152
54.293118 16.454699 -17.469151
64.929634 17.184952 -17.344879
74.867386 17.330957 -17.215343
85.236603 17.288481 -17.274536
94.980179 17.248533 -17.250248
105.45098 16.649857 -17.428156
112.70214 14.256545 -15.794465
-110.72477 20.540257 -14.562298
-104.33246 22.067076 -12.660808
-94.765907 22.257557 -12.515573
-85.000748 22.432503 -12.294026
-75.035088 22.296999 -12.504965
-65.043732 22.37167 -12.365243
-55.540855 22.021704 -12.770483
-49.166462 20.496691 -14.279792
49.36681 20.522198 -14.575728
55.554562 22.189682 -12.624569
64.930557 22.246956 -12.446146
75.172363 22.326172 -12.419624
85.265495 22.312723 -12.401013
95.280067 22.448416 -12.344411
104.45007 22.186184 -12.530706
110.7369 20.501917 -14.327502
-81.446884 -40.731148 -6.6189818
-78.690575 -40.899067 -6.6174054
78.697815 -40.831635 -6.7915773
81.342216 -40.818962 -6.7245979
-91.187233 -31.820908 -1.8016204
-85.670311 -35.16222 -5.8211112
-74.325684 -35.211525 -5.7450595
-68.655769 -31.771374 -1.7291667
68.671654 -31.816202 -1.586038
74.434967 -35.155369 -5.8822112
85.667191 -35.013313 -5.8763065
91.214798 -31.873381 -1.6682141
-100.29774 -20.35453 -0.94039935
-94.333656 -24.438396 -4.2947106
-88.632973 -28.201551 -8.0937624
-71.205925 -28.311058 -8.0411177
-65.806396 -24.408016 -4.6150908
-59.67738 -20.66802 -0.59117204
59.696381 -20.670963 -0.61510342
65.849403 -24.531366 -4.5080438
71.206749 -28.215851 -7.9090939
88.66346 -28.02178 -8.2915764
94.270912 -24.529476 -4.3599887
100.1441 -20.906685 -0.60552597
-102.60916 -13.500419 -3.6888142
-97.799431 -16.797632 -6.8752422
-62.254108 -16.773998 -6.9528127
-57.424656 -13.544365 -3.6658988
57.423237 -13.599562 -3.6891768
62.32592 -16.852243 -6.8578925
97.675972 -16.777813 -7.0471754
102.65688 -13.353374 -3.6908224
-111.68591 -2.2944539 -2.2589898
-106.50065 -5.6365223 -5.8071475
-53.542374 -5.8169608 -5.6052403
-48.416824 -2.245333 -2.4657784
48.499527 -2.3554122 -2.4554129
53.467522 -5.6920977 -5.7374787
106.38032 -5.7214479 -5.84483
111.50916 -2.3193128 -2.3049381
-113.13894 3.8544805 -5.9702344
-109.10522 1.2085104 -8.5185127
-50.949249 1.3656471 -8.571599
-46.911072 3.8982074 -6.0672088
47.008739 3.5743382 -5.8314991
50.967384 1.304351 -8.6594219
109.12918 1.1525673 -8.5550957
113.13873 3.9710236 -6.0744886
-114.77544 10.176303 -9.3561888
-45.366455 10.536926 -9.8506231
45.407078 10.481423 -9.6806211
114.66345 10.238795 -9.7400141
-101.87555 25.848078 -8.7198763
-94.91288 27.295324 -7.3020225
-85.127617 27.242092 -7.2855091
-75.009201 27.333008 -7.2128892
-64.973213 27.19702 -7.3421464
-58.038086 25.796392 -8.714838
58.068611 25.910145 -8.6461983
65.144806 27.125645 -7.4696841
75.022507 27.254147 -7.3302608
84.814102 27.329149 -7.2085757
95.128723 27.154402 -7.3788719
101.61366 25.793499 -8.7003145
-92.889603 31.819849 -2.8430893
-85.016243 32.263161 -2.4819405
-74.90789 32.306328 -2.3986678
-67.423828 31.846081 -2.9252026
67.239418 31.753004 -2.9706738
74.905991 32.345501 -2.3935404
85.083015 32.435421 -2.3635418
92.739067 31.847469 -2.935637
-93.61824 -31.833466 1.9994591
-89.711761 -34.750385 0.26216006
-70.215309 -34.715519 0.22063829
-66.50164 -31.937977 1.9266238
66.874306 -32.076447 1.7823271
70.450554 -35.053429 0.22785811
89.61972 -34.980991 0.34246835
93.640175 -31.810299 2.0682774
-102.90617 -23.142578 6.3113375
-97.551109 -26.666161 2.7264214
-62.440845 -26.991493 3.0130787
-57.338966 -23.097801 6.0097961
57.201134 -22.884041 6.0777245
62.413826 -26.71987 2.6878288
97.565605 -26.707573 2.7815504
102.63115 -23.157091 6.0697327
-111.63002 -12.339294 7.7583041
-106.42986 -15.749619 4.1894369
-99.983078 -19.8253 0.085347652
-53.744404 -15.910985 4.1693826
-48.303787 -12.328864 7.7545204
48.435261 -12.303621 7.6389856
53.728989 -15.861778 4.070045
106.34755 -15.612354 4.0096488
111.62166 -12.299699 7.6751614
-113.01634 -6.1632466 3.9342222
-109.17208 -8.3961802 1.0939361
-50.778454 -8.4020233 1.3575734
-46.931705 -6.0274463 3.8543057
46.810043 -5.8632388 3.769767
51.075726 -8.7145567 1.138122
108.85323 -8.9220285 1.1838806
113.12073 -6.2889457 4.1654572
-114.78571 0.16842175 0.36068079
-45.136063 0.41616535 0.21540231
45.364735 0.15133238 0.36463434
114.56665 0.33897552 0.38909414
-90.333519 34.630451 0.25754949
-83.850563 37.020416 2.4584305
-75.90242 36.856823 2.2732935
-69.61129 34.724022 0.4662354
69.391937 34.259563 0.13238375
75.906364 36.798416 2.2600827
83.959503 36.868328 2.3102272
90.610596 34.301159 0.22123933
-81.173378 40.858063 6.0465388
-78.607903 41.010246 6.2360377
78.612923 40.926136 6.1527338
81.175255 40.93404 6.2276492
-110.65642 -20.567589 14.365677
-107.24532 -22.166983 11.762938
-52.735428 -22.166149 11.650194
-49.472488 -20.564621 14.296529
49.396912 -20.51124 13.790965
53.015781 -22.318039 11.538736
107.11985 -22.137987 11.664042
110.60898 -20.455702 13.968138
-112.97144 -15.791836 13.406827
-109.085 -18.640129 11.192412
-50.905418 -18.78721 11.350226
-47.17197 -15.913383 13.367901
46.987015 -15.878783 13.529372
50.90538 -18.481428 11.183383
109.08197 -18.764856 11.517571
112.85065 -15.653296 13.253574
-114.55739 -9.7186155 10.530626
-45.252529 -9.8284435 10.510338
45.346951 -9.4258003 10.192271
114.50309 -9.6417294 10.221602
