# .PCD v0.7 - Point Cloud Data file format
VERSION 0.7
FIELDS x y z
SIZE 4 4 4
TYPE F F F
COUNT 1 1 1
WIDTH 1000
HEIGHT 1
VIEWPOINT 0 0 0 1 0 0 0
POINTS 1000
DATA ascii
97.968185 0.5673337 -25.15674
105.49071 12.962345 -22.393658
-88.607864 -23.616478 -14.210287
105.7636 -12.752161 1.1870241
-104.12276 8.525032 -24.410614
87.969261 -29.87682 -8.8530617
-61.100922 17.78134 -16.159124
-112.58009 -19.270176 16.085825
-73.617401 19.483673 -14.45679
-60.487011 17.457026 -16.483438
99.44458 -5.5748763 -14.926612
-94.800865 13.220161 -22.135839
-45.129589 6.6502676 -7.335587
66.148422 24.533646 -10.822352
-91.430428 -32.622978 -1.2121135
-109.20229 10.753943 -19.456083
-98.646423 5.2658367 -26.896074
-84.959122 3.7115331 -30.228931
99.543381 -14.386667 -7.9750967
-81.479027 -18.670406 -27.237965
-48.690273 -19.025934 15.305008
105.50085 2.3067183 -16.243422
-100.32832 -23.775547 2.5238371
55.730068 9.139513 -22.816311
-77.638626 -37.420513 -9.2399664
61.526039 -23.784451 1.9108396
94.181488 22.841793 -11.098669
-59.770996 4.5178719 -23.909462
80.633087 14.387962 -20.968039
86.557175 -23.613077 -17.113771
62.17038 -4.0104542 -20.774414
93.697235 0.58110476 -31.210484
-105.27784 -21.361942 7.109849
99.258156 -18.26339 -4.5017385
74.992302 -32.687805 -10.23018
96.080421 -24.260206 -2.998868
63.720913 24.899761 -9.0407009
-85.345078 13.027062 -22.328936
-69.867027 -7.9419522 -25.727715
-113.99852 2.1575537 -4.0768538
-79.888 1.6694455 -32.271019
49.476318 17.869326 -17.486671
74.633141 -19.315889 -21.094149
-84.453751 -18.894808 -24.806692
62.481415 9.0494738 -24.890987
67.726883 -30.46472 -0.17829466
-77.771034 -33.13213 -11.715598
75.773712 -8.2104712 -35.812607
-66.456474 -0.88559842 -27.960775
51.925297 -20.910892 12.614908
82.823227 1.256712 -32.68375
-66.623093 18.85261 -15.087851
-106.20644 -7.4729943 -3.4658937
77.958229 3.3752463 -31.980757
-114.64832 -3.4141936 4.4138269
-73.936996 -35.428799 -3.9967375
45.709183 8.7051334 -10.210126
-114.47646 -15.064537 15.821115
60.0672 10.459845 -23.480619
-109.26427 -20.412762 11.798277
-95.227142 -7.60742 -20.85836
-53.608276 8.4191723 -21.095278
89.175102 -21.518818 -13.50577
47.931705 -11.502001 6.8538566
115.20917 -9.410634 9.6173544
115.29387 15.251396 -15.164459
83.787827 -5.3064823 -39.336769
44.691059 -17.105213 17.170349
59.573654 3.407795 -22.520292
108.74717 15.863051 -19.492952
90.862747 25.247063 -8.6933994
-65.163879 -25.540569 -1.4777834
-81.261627 19.516369 -15.839633
90.669739 26.341312 -7.5991521
89.563576 -24.854166 -9.6210327
88.591972 -30.339455 -5.5097914
-52.78492 -21.918415 10.406724
-76.876862 -22.495346 -23.087824
-78.683479 -7.0843487 -41.053787
76.979568 5.5676441 -28.372816
67.525833 -9.8134851 -20.545212
-85.446602 4.3365855 -31.019421
82.900009 34.115131 0.17467022
69.693146 -17.878685 -15.54508
-89.253212 -6.7173929 -30.19673
89.726006 6.9608841 -26.97958
113.70902 -18.256477 17.099524
59.202545 0.47258592 -19.060249
82.672066 -12.725805 -31.495373
106.54064 -17.841431 5.3751993
-83.195862 7.702837 -26.237625
73.639786 9.0202494 -24.920214
86.469238 29.252659 -6.1033421
-79.876991 -41.196037 -6.6299944
81.52507 14.969061 -20.38694
-77.193695 -37.148293 -8.8829479
102.39891 21.775209 -13.580792
75.154602 -20.224096 -20.923409
50.830509 8.630928 -17.378651
-59.302662 -23.261612 4.5323591
-110.59402 16.747036 -18.608969
100.97722 -3.064539 -17.269487
-64.322159 1.6005666 -27.428534
-55.925812 -22.018116 6.0644865
-60.926205 -13.557741 -9.4675808
54.556194 6.8522024 -18.868876
69.665794 29.096767 -4.8436961
65.373528 -19.955402 -7.3594341
-67.688599 -23.362652 -9.2262335
-98.777466 4.58323 -28.028147
84.550224 -31.990891 -11.574197
86.106827 11.779716 -23.576286
-104.13142 -18.956581 3.0832334
-58.393974 9.366497 -25.989502
-72.396042 12.680248 -21.260214
-64.997528 5.9099989 -29.446003
-65.767509 -17.203506 -12.668522
-73.340561 28.301291 -7.0547104
-65.979073 -31.123634 0.95240545
85.181763 10.377441 -23.563021
110.80165 -7.8696618 3.4293442
-103.5769 -8.1270504 -8.5305033
52.310852 -21.678978 12.837735
-84.557915 -33.037281 -10.516922
-114.79202 14.67925 -15.476393
94.766098 29.129868 -6.2261319
113.87961 -11.911317 9.8238392
-69.74324 -24.928211 -10.566405
-48.567757 -8.6554241 5.1077676
-77.439598 0.70070457 -33.239758
-103.18895 18.543339 -16.812662
-99.341408 17.767185 -16.173279
-70.379837 -22.141958 -14.252941
-74.99279 -10.976223 -31.942446
104.43463 -14.973947 1.5293846
-97.332626 2.7636564 -28.251865
-65.430466 -26.689461 -2.7059116
96.251442 -6.5454273 -18.471806
-74.702011 -34.845882 -5.6615505
-57.998512 16.517345 -17.423115
-63.211365 -27.898144 1.6410832
-65.775406 28.981939 -6.3740597
-101.03746 -3.3253384 -16.923492
-93.682617 -28.104578 -0.54549074
89.763084 4.0686898 -29.871773
-51.327538 -2.1733675 -5.2772465
-96.065468 13.09307 -20.847393
64.491356 -21.424759 -4.6424847
-85.380524 13.542741 -21.813263
-93.540436 -23.556128 -7.2949848
112.05546 11.453041 -14.120224
-110.22478 -5.4891076 -1.7670159
-73.141853 19.786335 -15.569668
56.287437 3.8753476 -20.340401
73.147346 -14.683352 -23.625439
-101.34649 -22.635658 4.8238478
73.128876 18.197489 -15.742974
-109.37394 -7.8286705 -0.63071251
98.410614 14.531375 -20.824627
-85.989983 -34.697197 -4.8317862
-60.910599 -1.7009203 -19.30233
113.49265 15.490494 -16.125198
-91.850754 25.485453 -9.8705482
110.21869 4.1339417 -11.398692
68.737862 -20.288519 -11.784249
-86.195343 0.021096945 -35.334908
-85.858948 31.880695 -2.0597665
53.350418 5.5181022 -15.829533
-111.46144 -14.784476 9.2772484
112.63747 -13.736387 11.892296
-60.312233 -26.460251 6.303236
66.263397 -8.7319241 -21.841408
54.26062 5.0024042 -18.601078
73.440842 37.145077 3.2046127
62.390335 2.5983949 -27.694334
73.022415 27.617926 -6.3225384
94.955261 20.388474 -14.967527
69.119827 6.2756052 -27.664856
81.704262 -2.6219378 -37.97794
71.365585 -14.542519 -21.24646
73.191681 18.988194 -14.95227
-62.787537 18.084732 -15.855732
55.059525 -19.867395 7.1389036
85.696037 -8.935112 -31.009565
86.213913 -4.0525036 -35.159801
-99.887512 -21.492508 -0.38257456
-75.612038 21.360046 -12.580414
-114.03632 12.073725 -13.939564
101.6113 -22.988514 5.5511966
-79.881897 -31.548309 -18.28466
-111.25654 -10.134604 6.3375812
61.699303 10.992112 -22.948351
104.57114 12.25567 -21.684795
-56.586506 -22.623608 5.7356071
49.035446 11.09788 -17.306967
78.499832 28.239054 -7.1169472
-46.553589 -7.3230405 6.6238751
-46.752804 -18.080475 15.099564
-61.704376 0.75369549 -22.87952
96.305038 18.897907 -16.458094
91.671555 18.13835 -17.217653
-103.55901 -17.139963 0.45710516
87.238373 25.671923 -8.2685394
-106.2029 8.8194628 -21.763329
-48.983261 -12.081734 7.9464555
-67.251915 7.9444227 -25.99604
98.046921 17.007713 -16.932749
53.758167 18.193855 -15.746608
97.904373 -11.436301 -11.243358
-83.110786 -5.3793535 -40.221371
75.769447 34.125988 0.18552351
73.411072 -10.782219 -29.899532
-48.471916 -9.0023937 3.5902648
54.498146 -3.224062 -10.710526
82.151184 -27.191366 -19.766434
115.13615 -0.11703539 0.42700624
69.295486 -1.4136815 -33.447708
107.15649 19.633152 -14.30731
-76.922729 -20.185225 -23.462818
-67.936516 -25.915997 -5.0235023
-97.243286 28.536907 -5.4035568
-81.667267 -28.271381 -17.370792
-51.527809 -20.131001 10.39715
-56.677444 12.171512 -21.76895
-101.32043 -17.15741 -2.6912484
-95.936798 29.245007 -6.1109934
100.04265 -7.9885931 -11.667103
-72.133881 -25.790392 -13.085118
-81.25972 -40.491596 -7.7268982
90.27887 -5.0145726 -28.449066
77.805504 -23.115353 -21.781124
81.015984 14.054545 -19.885918
67.406464 20.270782 -15.085219
57.363949 -1.3337941 -14.653674
68.059868 29.032118 -6.3238821
-78.576454 -31.238447 -14.748338
-72.968933 2.686409 -31.254051
-63.004528 18.561853 -15.378607
112.45264 -18.753826 14.648342
73.77784 -20.914234 -20.286219
59.588985 19.173241 -14.767224
-48.071693 -17.740456 12.894333
99.284241 -0.54819381 -20.18005
-51.877304 -4.9522047 -3.2759123
84.164757 -4.3910508 -37.719162
-88.380737 -9.0510912 -29.096867
-109.08322 -6.352531 -2.5179806
86.206566 13.732719 -20.207743
60.009281 -11.839899 -7.8886757
73.405617 29.976748 -5.3792524
-107.1514 -17.778206 8.175704
64.997307 22.136539 -11.803925
87.983376 -25.307888 -11.402034
-54.212868 17.872589 -17.48341
92.964821 -25.800419 -5.8647466
88.381302 -0.3587651 -35.714764
-80.931519 -26.943699 -21.738956
-81.20285 -39.561714 -6.7372375
-104.40321 17.854265 -17.501736
81.85392 -27.554609 -17.823599
-57.750393 6.8570147 -23.391003
-107.0467 -12.486741 2.7361641
52.911617 2.0498075 -11.740675
72.104645 -34.668964 -4.1652083
-49.233395 -14.076904 7.5878744
-99.410088 -21.007397 0.45712733
45.286636 12.847223 -11.939825
107.4147 18.356665 -16.999336
-61.941017 25.254326 -10.101674
-66.659462 14.141523 -19.798939
-54.471943 2.9979539 -14.895472
-103.69933 17.23761 -16.702856
-93.431046 -13.814958 -17.190863
-60.67112 -2.9179788 -19.746593
57.843452 10.073034 -23.867428
-110.90527 1.4467173 -7.7404842
-85.362022 15.962123 -17.97834
-58.69648 -20.291094 2.4191203
-106.378 12.770056 -22.585947
-104.58317 19.937975 -14.002487
-106.45439 -4.8785391 -7.709672
-71.656006 -12.022234 -24.177465
-83.52536 -14.780852 -28.233591
-69.74189 -33.170074 -2.3226304
55.998123 21.991671 -13.36433
114.9379 8.9489155 -9.5397587
93.53064 1.4858437 -30.35083
-84.152191 8.2310715 -25.709391
95.6409 12.023541 -21.916922
-101.81458 -23.960464 4.8106213
66.860764 -1.5398147 -29.878326
-82.130043 -25.534752 -21.452951
72.209084 6.0512371 -29.304762
52.909534 6.3426113 -18.030542
52.385742 -8.7899771 -0.15718734
94.215134 17.290279 -16.650185
78.548233 -10.500041 -35.446823
58.269848 10.965542 -22.97492
-54.20776 6.4511242 -17.975033
65.136696 -26.214069 -0.76583552
-90.206558 33.648483 -1.7075176
-68.975861 9.940362 -24.000099
-67.77739 -4.7499247 -25.964512
71.557297 -9.5646572 -28.495443
104.48764 18.486612 -16.869389
-97.06794 17.296402 -18.059599
103.85676 3.9852209 -20.247004
105.70273 15.434813 -18.50565
78.922142 38.460922 3.1049213
75.632484 29.222128 -4.7183332
-54.440014 22.941925 -12.414072
-74.726112 -12.685149 -27.856371
-72.331039 -15.987897 -23.16646
-94.610825 6.9525995 -26.987862
56.535206 22.306328 -11.634135
88.025894 36.556068 2.0939646
-107.97072 -5.9897585 -4.4540629
-95.968544 2.5118113 -27.929119
95.664986 -25.289972 -2.5566111
-60.881096 -14.330013 -8.6315098
-98.388405 29.138054 -5.1429558
-69.060722 27.65414 -6.2863231
-64.488632 -29.520454 1.4570565
-80.590469 19.918694 -14.021769
-89.495445 -11.574882 -22.996677
82.070122 3.8151872 -31.540815
-72.9674 -2.3521082 -35.702183
71.414627 34.275375 -1.0806251
-61.378056 -28.409473 6.7451391
75.945488 -23.756346 -18.509645
97.741501 -24.608446 -0.30153704
-75.093018 -30.370476 -10.689936
67.128403 -4.7739677 -25.022671
95.003235 -4.8468003 -21.935646
56.49894 -14.276263 -0.48789012
-83.441666 -24.726223 -18.406582
62.367878 -0.019352674 -23.044815
85.666412 23.037844 -10.90262
87.772308 -16.387074 -20.62134
-112.61974 -7.9715858 6.1024032
96.812653 -30.552868 4.3293185
-59.650616 14.691021 -20.664978
-69.6474 -22.317747 -13.041323
95.807014 27.13966 -8.2163439
-75.457344 -10.93553 -32.640121
46.17469 4.9110107 -7.0743351
-62.288727 24.344355 -9.5961065
-104.19406 -14.08139 -1.7033682
44.673729 17.135937 -17.095312
-75.564865 -3.5211916 -37.461655
112.20045 -18.085785 13.623657
-68.175011 -2.2928865 -30.983889
103.79247 22.948605 -12.407396
-57.389984 -14.478964 -3.545341
77.02314 20.306551 -13.633912
-55.51992 -20.772324 7.3927231
-96.807411 4.1997943 -28.430752
-113.8923 -4.518301 2.4487848
69.765724 -1.2110629 -34.315346
81.216873 -21.944565 -26.334534
71.309563 -3.0726318 -34.637112
69.744576 -25.289738 -10.206764
-68.348366 -5.7069883 -25.814945
-75.236351 -2.3746297 -37.730629
59.487247 -24.548073 5.5577769
-70.930389 24.192726 -11.163273
62.186363 -4.8419285 -19.96554
-79.987045 -10.572677 -39.409004
-83.376846 -35.56937 -9.6551018
-76.287834 8.327775 -27.028227
-68.732025 -17.391352 -14.67317
-105.75089 -20.270969 8.6878576
-85.763977 -10.746367 -29.102228
92.344742 31.833572 -2.1068926
56.597748 0.60207474 -15.505965
112.3091 2.1660814 -4.4745746
-51.724258 1.321806 -9.3334761
103.30782 -4.9132156 -12.124871
102.31782 -12.221626 -6.2165303
77.230865 -17.348614 -28.73521
-45.317059 1.8732238 -0.92280293
92.921555 21.417625 -12.52284
90.701614 -10.085943 -22.77985
78.373444 -8.9012699 -36.798405
74.20993 18.291229 -15.649233
85.640198 -20.705629 -21.318001
56.388721 -19.981964 5.373683
-73.40062 -15.52171 -23.145258
83.600029 23.611258 -10.329208
-85.378098 -30.376671 -10.017641
-50.130219 -7.414959 1.6576247
-107.27465 17.877527 -16.062935
58.378101 27.14315 -7.7217984
-45.198528 -8.3900623 9.1728601
104.83543 -22.244415 7.3666797
-64.094894 -10.573161 -16.933418
-100.81561 9.6489153 -24.291546
100.75047 -20.936317 0.28163242
-55.428596 -7.9236689 -5.3267794
-71.959038 -13.04331 -25.584942
80.714935 -32.185452 -16.803492
107.39855 22.005707 -11.934755
77.406998 9.6326656 -25.723335
-100.88076 17.547312 -17.808693
100.26384 -3.7310877 -17.611805
-68.090813 16.860962 -17.0795
113.11273 9.1678257 -10.339827
94.232193 -16.041529 -11.831312
74.591156 33.362434 -1.9935646
-71.914642 -28.086271 -8.4791937
80.567329 8.6898594 -26.666142
88.379219 33.775455 -1.580544
76.129074 18.627071 -16.728928
-62.250359 10.048374 -25.307627
-88.439072 -32.54615 -3.5193236
61.297302 21.487703 -12.452758
57.351082 -0.047665715 -17.921623
60.834129 -21.333944 0.43884254
-102.00481 23.240269 -10.700195
107.69136 -0.16159296 -10.677299
103.97722 7.6971331 -23.788551
-114.72223 -16.915768 16.019928
111.93485 -13.615282 10.777538
-79.836288 -6.8620262 -40.802486
-81.680435 34.970161 -0.38583946
-93.351692 -17.707094 -11.41097
53.449745 -3.4459906 -7.0059123
-71.542358 -12.696945 -25.342026
-87.740807 9.7340584 -24.206402
95.402908 3.2849855 -31.502197
-93.34433 32.929779 -1.8012204
-56.703911 11.709085 -22.231377
-87.033554 2.2119036 -31.728558
48.77898 -3.1511335 -2.6952562
-83.436859 32.207253 -1.7332075
-100.25606 -20.369396 -0.98449874
99.062027 -13.60755 -9.4349327
-65.216675 24.873356 -9.0671072
48.479664 -13.644807 10.22173
-90.211205 -29.523453 -6.0358663
-92.755211 -32.562809 0.6012103
86.419144 -3.0088797 -35.913181
103.33378 -2.6654644 -12.335928
-83.838295 -12.612822 -31.959064
-93.634079 5.3825951 -28.557865
94.807938 -25.753073 -3.3055468
-101.14391 2.3470798 -22.445374
-101.81213 -21.819925 2.6666319
100.34879 -27.540043 7.815959
85.020775 -35.250416 -5.6492281
63.723663 -13.996861 -10.984694
-86.454712 -7.5449953 -31.326763
60.636086 -12.87733 -9.7376938
-87.759979 -16.372913 -20.652931
-96.362122 -9.8001537 -17.060545
-74.252213 38.044029 3.8264976
78.371475 -40.14362 -5.5532761
90.451782 -10.911149 -22.307945
-90.838669 1.9235153 -32.016949
-50.594814 -15.086645 6.6722608
101.55579 7.983202 -25.499031
96.481949 -1.8558514 -22.83539
92.818802 -20.108429 -9.7632408
99.841026 28.412876 -6.4721165
-92.053825 -14.099325 -16.85417
106.77216 3.7448139 -13.883631
109.1723 20.424913 -14.931087
88.542496 -12.330968 -23.588259
-92.550919 -23.067675 -7.1828337
71.579018 -25.98271 -12.108111
58.088848 -18.520218 1.5075707
46.529781 12.466544 -13.132037
-67.284866 -10.937404 -21.080509
-78.970184 -23.657234 -24.886377
-89.336037 6.213954 -27.726509
-47.201935 -13.078457 9.4623661
96.485184 -6.5034485 -18.183216
113.58059 2.2277045 -2.7380476
54.962955 -5.2522783 -9.3396521
82.804565 -15.401445 -28.632357
90.165558 3.4505498 -31.905453
-67.900803 -13.330956 -19.558031
82.043274 -38.077641 -7.0327749
-87.315109 -21.035519 -16.619476
54.495998 -14.759996 0.82844734
45.471676 0.9050256 -0.074117154
82.676605 -26.996796 -17.217968
-101.84534 18.96793 -14.972534
-112.04322 -14.015541 11.33104
-105.41267 -15.775817 1.7144046
65.882118 17.048044 -16.89242
-74.549683 -34.047302 -6.2447095
98.262177 28.401661 -6.9543419
76.712494 10.51356 -24.84244
-94.750473 31.518867 -2.4215941
72.085602 36.994316 1.6383152
-58.693459 -18.321398 0.45368981
-96.009781 -9.6288481 -17.730133
96.868385 11.379595 -22.560867
-70.023636 2.2422395 -31.698223
50.061432 -4.6606107 -0.99944639
-70.359154 -34.215424 -0.1502355
-74.764946 21.539249 -13.816752
-104.77193 23.193665 -12.162337
95.290749 11.941783 -23.414217
84.156303 12.201022 -23.154978
56.355938 22.113613 -13.242387
-49.074898 18.36198 -16.994019
90.923668 10.443077 -24.912924
-100.29943 -23.405874 2.1133125
85.967957 -20.526569 -19.033566
67.510452 -27.621727 -4.7152252
-47.344498 -17.615141 15.79745
71.803238 11.472337 -23.883663
85.177689 36.97644 1.6204414
-102.72356 6.239913 -22.104273
-95.7687 -24.242739 -3.4571855
-78.362938 8.9957428 -26.36026
81.3097 -36.581379 -11.566447
-56.335663 20.947243 -14.408759
98.490639 23.162584 -12.193418
-102.26912 -21.812115 5.3050914
-51.966026 -18.491699 10.138117
-78.700279 -32.555271 -13.606617
82.203812 12.004417 -21.936047
92.655556 0.27661705 -32.379131
-47.609135 -5.9819994 1.7900435
80.402756 33.928291 -1.427711
-77.576996 -4.0485263 -37.988991
-85.78875 -25.395126 -14.418438
74.098602 -37.099834 -2.5542448
83.487534 -11.99367 -33.074261
45.23262 -5.1949415 6.0259547
102.1234 7.8792143 -24.592321
108.17537 2.4229412 -10.577347
74.81382 -31.524477 -9.1410789
94.740097 21.909775 -12.030688
-69.184166 -1.9797289 -30.72422
77.023407 -18.589516 -25.200907
96.65168 -13.853806 -12.597398
-47.086464 14.274358 -15.727133
-54.057941 21.199184 -12.741279
91.924255 10.974286 -22.966175
46.701759 1.2193413 -4.1280713
50.596802 12.05909 -20.476294
-100.60356 4.4530163 -25.315475
-77.725891 -11.645622 -33.138264
107.87869 1.9586911 -12.532652
68.201523 -20.422945 -10.891316
-47.798431 -17.210892 12.751222
114.06078 9.7565517 -9.5878181
77.321419 -17.579824 -26.63205
100.04256 -10.395442 -11.260372
-76.898376 24.539112 -10.816888
-65.86042 26.36631 -7.574152
-88.287216 1.3907275 -32.549736
46.413864 -2.8228331 0.32125854
-58.724453 11.00151 -24.354492
51.686829 9.7943134 -17.75305
-98.522964 27.639412 -7.7165871
-46.15984 -15.909314 15.767002
-65.589645 20.60762 -13.332845
68.17305 -22.819506 -10.454508
-75.311974 -29.787111 -13.582962
-88.539627 16.118723 -17.821737
105.89783 2.5831575 -13.958454
-81.576279 -39.667095 -8.1037254
-61.766312 10.500622 -24.855381
-47.4049 14.696344 -18.599472
85.678856 -13.687405 -26.281582
-56.094933 -7.699389 -8.4934139
-75.57428 -27.405334 -16.335701
71.918175 9.7799158 -24.160547
51.835426 13.233584 -20.706879
-67.127785 -32.683216 0.8874445
-103.71304 12.571865 -21.368599
83.263611 -8.2004538 -37.184139
95.405579 -14.430342 -13.7831
-54.071022 13.285223 -20.655239
-86.73027 20.570524 -13.369939
-50.886971 -14.191402 5.3638387
68.290436 -25.666471 -5.7735357
112.52607 -13.353868 11.352214
95.739639 3.0461283 -30.787142
108.50954 -18.672371 8.9905472
86.750076 0.36761439 -34.988388
53.201488 -22.875311 12.48069
106.87871 22.58659 -11.353874
83.853958 3.4680972 -31.887905
86.637222 -5.9977069 -34.615936
-82.732773 6.1908474 -27.749617
114.1111 16.231764 -17.991854
-69.593872 -15.052549 -18.230818
-90.338066 8.4757156 -25.464746
-105.95296 -4.8269978 -6.4703493
-75.428009 -10.196672 -31.337488
107.77449 -20.148235 9.4269066
98.499535 20.549845 -13.390617
88.652954 21.585205 -12.35526
-83.749405 26.749214 -8.6067867
-69.910934 -7.305603 -26.426159
78.22374 34.744209 -0.6117878
-61.09005 -12.913029 -10.344012
103.43698 -1.1658902 -15.689544
69.223938 28.229946 -5.710515
-84.55603 35.559692 1.6192296
108.52811 -12.591484 4.9359207
68.831696 -3.0146186 -29.190853
-65.644897 -14.751986 -14.946638
83.8274 -16.905807 -27.681488
-61.482304 4.9586043 -26.770367
89.867249 35.021687 -0.33431292
-88.696365 -18.79451 -18.907095
-57.143406 -20.332874 2.6572902
-80.936432 -37.366158 -9.309557
103.83507 7.4938154 -23.78627
85.810013 21.861601 -13.4944
92.668732 -6.8749313 -23.208963
86.072289 19.859871 -15.49613
-96.061615 10.913532 -24.442471
-108.4689 -16.425873 8.6865807
46.396488 -13.404868 10.927866
-84.354042 -34.164536 -7.6779947
-103.9324 7.3302317 -23.485043
-112.84363 7.6544194 -9.206974
-67.14727 4.2465625 -31.109438
-87.550407 2.8115349 -31.128929
84.436203 -28.023983 -13.702356
-102.85625 9.5174026 -24.423061
102.44739 0.63016576 -16.885084
-104.49375 6.6022811 -19.96323
98.939529 -24.703209 1.4874778
92.485832 7.8881931 -27.46781
-90.872993 34.961174 -0.39482594
-51.335815 -0.54708576 -6.915236
-58.043251 7.8414869 -24.789646
-44.830975 -4.9839277 5.2469287
-86.99353 -35.115711 -2.9940677
-76.162277 -14.779586 -27.792997
-78.526688 -33.188915 -12.727486
84.523605 -34.252174 -9.3505535
103.9817 -17.243435 3.1583323
71.309319 -16.073252 -21.636154
-98.700729 -25.135504 1.5820656
-114.05391 13.31686 -15.157831
58.899986 -7.3695698 -12.790219
66.353485 -7.1263189 -23.574409
-106.60928 0.27237988 -10.641552
84.931015 -31.675932 -11.350624
-68.908867 28.475811 -5.4646506
-73.328987 -24.157278 -14.408387
-112.06216 -1.8894529 -0.76825428
84.502319 23.497076 -10.443387
-81.726906 -15.446587 -30.111237
-44.755234 14.879594 -15.035489
-63.265896 16.95046 -16.990005
-71.427254 33.220589 -0.7198717
110.974 20.762169 -14.565963
-107.12295 -20.56501 8.9222708
-61.592525 -28.473072 6.5054307
64.947037 -19.082376 -7.6293068
54.133877 -6.288372 -7.1310592
89.954391 2.4112165 -32.944782
-62.77673 16.475897 -17.464565
-74.797829 -20.313391 -20.329552
-44.940628 -12.655148 13.073219
82.454414 -31.362219 -13.166763
-78.93512 -27.837555 -18.656462
-108.56217 17.385117 -17.970886
-113.67858 -9.9728403 9.6010742
76.026932 -1.3636658 -35.304131
91.995659 21.031755 -14.324245
-66.198311 -23.302366 -5.1788998
105.53832 -18.274511 4.3908029
-67.748344 29.393097 -4.5473671
-80.526276 -17.267719 -31.988022
107.3317 -14.424921 5.0773897
84.657028 2.1079385 -31.832523
79.804024 -16.651236 -31.071606
102.30267 -4.0157814 -12.443798
-74.490433 -27.859118 -14.349106
93.927773 -7.8748713 -20.428486
101.62122 14.873308 -20.482693
-102.02704 -20.713669 3.8642731
-74.1334 31.266327 -2.6741374
77.069496 -13.481122 -30.374477
51.831337 -3.1378684 -5.0252357
-62.891586 2.5612686 -28.366081
79.71302 2.7540815 -31.18638
97.404358 -20.564789 -2.821981
48.063065 15.744716 -18.195747
-68.631958 -13.455651 -20.46736
59.157837 -13.249264 -7.2751827
-97.635406 7.6826186 -26.257845
63.159119 -3.5546298 -22.628542
111.58319 1.1503878 -4.4854546
-94.763 6.1347513 -29.221251
94.68261 24.408941 -9.5315228
64.632484 18.697584 -16.658417
62.489437 -19.822643 -5.4134407
-83.274048 28.970644 -6.3853583
-100.79143 2.5275877 -23.124365
101.50777 -17.489517 -2.0941944
-58.790501 -19.628071 1.6231308
-63.248878 17.695126 -16.245337
67.833 16.064865 -19.291138
68.50724 3.1294012 -30.811064
-84.294601 -31.846575 -10.080004
92.726021 19.321421 -16.03458
-47.588711 -13.363411 9.2003355
69.249817 33.300953 -2.0550461
-100.84529 -2.6624877 -15.858118
81.189674 -28.729454 -19.588108
-95.573822 -19.428503 -6.5470066
89.20771 -30.028122 -4.950356
96.243095 -20.674694 -4.354342
68.499039 -30.258881 -1.4761388
60.225128 10.074768 -25.281231
-57.207104 -1.1765335 -14.589128
-57.405579 -16.079647 -1.966709
-90.31871 28.213959 -7.1420426
-60.147362 -10.636634 -9.28722
87.229706 28.742702 -5.1977601
59.772835 10.459872 -23.480591
-54.091705 7.8111515 -19.170929
-87.598114 21.693569 -13.662432
112.56963 11.688713 -13.628753
-76.56604 24.744619 -10.611382
-80.212814 -5.9035606 -39.844025
56.3246 25.063511 -10.292488
-85.184235 1.8069234 -33.54908
64.967377 -31.972778 3.2323272
-75.17466 28.434048 -5.506413
64.132492 -26.288948 0.72922015
105.52293 -0.97335577 -12.932106
44.79863 11.214215 -10.996952
-93.587128 26.406244 -7.5342169
69.164108 -13.452766 -19.222805
-95.7276 14.592411 -20.76359
100.98498 -14.897282 -5.4257698
89.66198 -4.7723274 -31.563707
-104.83646 -19.831924 6.9556317
-63.073147 -11.125822 -14.935764
-97.975723 -20.969749 -1.6090043
100.1408 26.385256 -8.970746
-49.158974 0.5299921 -4.9137669
60.578575 5.7961721 -28.32987
62.292873 -11.295034 -11.663057
-64.568054 6.4501934 -28.905807
68.939194 11.89981 -23.45619
87.742737 -11.80223 -27.247992
69.841049 34.297462 -1.058537
71.497765 27.972002 -5.9684615
-71.797592 11.797256 -22.143206
68.695045 27.911388 -7.4446115
90.404091 -1.5638285 -33.722713
96.299263 -20.332893 -4.616703
102.68542 -6.9832726 -8.9350281
-93.643196 -21.721935 -6.9838791
-91.121704 28.115356 -5.8251052
93.513412 29.295864 -4.644598
81.703659 -7.0846677 -40.506023
77.796234 23.892456 -11.463542
90.348572 -27.707375 -5.6577034
68.811043 -11.489137 -22.687138
62.602074 4.4566317 -27.852003
97.859169 9.359129 -24.581333
85.097694 -26.015465 -16.775383
-74.882767 21.473671 -12.466791
53.996471 -11.82935 0.60425341
-64.182129 -27.776583 0.14664602
-86.231857 -5.2930937 -35.89381
-89.386559 3.298068 -32.057938
93.818748 1.1061544 -31.563684
57.475174 -11.903988 -6.2407908
-74.420876 -36.784397 -5.3254528
94.08857 -10.979943 -17.096031
-100.45708 11.011313 -22.92915
105.6911 -8.7205191 -4.9471369
-97.139648 8.3537483 -25.586716
50.463726 10.788454 -17.017441
-65.447334 0.33194542 -29.751165
-62.83313 17.477631 -16.462833
-66.632416 -7.5177326 -23.577473
-109.75626 -9.200614 1.2818995
61.203178 18.993309 -16.36269
-102.38486 -14.39769 -3.9456515
80.601692 -31.89864 -17.25045
72.759827 7.8997498 -27.456251
-69.264175 18.354725 -15.585737
-90.948189 -33.22683 0.70974112
-68.256233 20.62558 -13.314884
-73.965797 27.415382 -7.9406166
-57.16655 11.632517 -23.723482
69.636032 -13.94474 -19.398254
-70.600571 -9.2267399 -27.480328
-48.283028 -12.791406 9.6464214
64.213715 -6.2210546 -19.453545
95.920052 23.125904 -10.814559
-85.102051 10.361893 -24.994106
-88.226654 -19.473539 -18.892317
-104.78041 19.09812 -16.257881
-45.432682 -2.346998 1.2330378
-50.983284 -3.3626318 -3.6011348
-85.823456 -31.59234 -10.172121
70.528442 -13.283171 -23.32189
-54.504364 8.1873522 -22.13073
-92.713242 24.38995 -10.966052
46.34845 14.541441 -14.950493
-62.379333 -22.336098 -2.7442803
55.746735 7.3763256 -21.076693
52.132416 -21.250605 10.661697
72.190262 6.4018626 -28.954138
-106.25984 10.429952 -23.293293
-110.65483 -16.827595 12.179644
-68.413895 -31.686852 0.072243989
98.170631 27.062807 -6.877655
52.30645 -0.58960819 -8.2454128
-97.853607 -15.702522 -9.0489063
-61.333244 -7.3732944 -16.227665
68.540703 -23.659721 -10.134231
-112.94836 4.9860663 -6.3905153
109.59472 0.51176596 -8.658927
73.378723 33.00927 -0.93119431
110.19646 -14.46024 9.164052
-46.532883 -10.452045 7.7821474
102.39091 24.476864 -10.879135
74.830437 -15.664941 -25.024109
106.61244 -16.721859 4.3571672
-113.59337 -9.6912155 9.1989231
-74.015198 -34.554123 -6.9820151
88.923416 -2.8883419 -32.492172
-48.541634 11.854402 -17.365126
44.778236 8.2208748 -8.0324535
84.567566 30.290728 -3.6497345
-53.705971 -6.4488387 -6.3654299
-48.07283 -3.7947416 0.94702387
-79.927719 -1.6187613 -36.974762
53.039413 -21.867615 9.9960136
-108.02415 12.405783 -20.774044
59.799644 2.9802201 -24.412327
-79.640709 39.346447 3.9904473
-112.21539 3.5273476 -5.9683604
-73.976868 -10.764303 -28.717615
95.110748 -28.269245 -0.36113501
-81.41703 -23.696499 -24.299532
64.849243 -5.8816919 -20.691687
91.868507 -17.764063 -13.451511
88.856415 4.5280247 -29.412441
-91.421379 -31.798527 -2.0493608
-53.49205 -18.72333 8.2116003
-85.261932 -35.832207 -4.7263851
55.447502 -2.3954077 -12.881787
109.733 0.25877857 -8.2103786
-81.511765 21.326475 -14.029524
86.966255 10.706426 -24.649576
81.866699 -22.485165 -24.874949
-75.252541 25.771816 -9.5841827
68.73381 -9.5686932 -22.498348
69.619759 -21.035688 -14.284306
-76.354836 -38.974945 -3.8699586
79.090942 -11.937284 -36.777096
78.058456 -6.3790092 -38.875195
92.148369 4.5534334 -30.80257
-87.504921 3.0602102 -30.880253
-69.40554 -23.393991 -9.6230297
99.179161 -26.026548 5.1496902
-69.597351 -3.898948 -31.389343
-72.672226 32.395039 -1.5454218
75.944939 15.723814 -18.216648
64.043274 -15.353582 -12.079983
-97.243256 4.1691437 -27.783752
-66.839645 -11.490777 -17.897484
-57.758514 -12.752354 -5.7931371
-92.785004 -21.357088 -8.5623798
87.301262 7.0840998 -28.271902
-76.811966 4.5744724 -29.36599
96.100227 13.21684 -20.723621
99.155685 -25.491653 2.5816255
96.119492 -18.107342 -7.0964923
-83.587212 -21.733448 -21.193535
-57.209702 -6.3770943 -11.392249
52.43177 -15.470993 4.4587283
-71.244522 -2.2580736 -35.359692
60.86845 12.802608 -22.553392
-88.744789 -25.909525 -11.723604
98.217262 -12.620496 -11.616659
-72.528717 4.1223683 -31.233635
90.846611 -0.65050602 -34.010223
-51.712296 2.6869326 -10.68168
-112.33874 3.5333519 -7.7999287
92.312843 -25.051992 -5.5352044
74.19519 -22.993416 -16.797256
-114.86842 14.002281 -14.691369
110.17407 13.07091 -18.39875
-90.141953 2.9502702 -30.990192
-114.48152 10.941129 -12.177376
106.12553 1.1187644 -14.172045
-92.535263 -32.809952 2.5373135
64.025925 -17.273048 -10.135982
-86.291153 -27.543772 -13.559277
-92.114487 7.3285851 -26.611877
-51.200531 16.342197 -19.013802
-99.989807 -4.4664249 -15.264008
108.27872 -22.091484 12.08325
111.68748 8.3465748 -13.534151
56.315186 -10.303597 -4.2006884
65.352776 22.541349 -11.399113
-110.72938 0.70605326 -5.2485843
-97.946442 -8.8316898 -13.788484
-83.801216 36.745293 2.8048332
-89.000763 -23.907455 -13.363673
-96.708778 19.851328 -14.089135
90.128906 -3.071676 -30.604034
109.31007 11.127872 -19.677595
-108.42826 11.717735 -19.514502
-94.835686 -25.350328 -3.6690474
68.407532 10.239877 -25.116123
-60.67926 -28.418446 5.7423582
-65.913452 11.8878 -23.468201
-54.948471 10.123438 -24.694887
-109.66867 -19.266663 11.224096
79.620308 -11.237837 -36.225189
68.54155 -24.912434 -8.8827133
96.785858 26.840702 -8.5152988
-55.992256 -2.8611231 -13.186478
-77.686882 26.989222 -8.3667784
112.78798 -12.167555 10.53629
-76.956116 -14.900274 -28.794981
-82.851318 26.988037 -6.952426
-46.791847 10.435135 -13.471264
-61.419594 -29.072514 5.3494253
-114.30445 18.153267 -17.202736
-61.420197 -27.548717 5.8247895
-74.120506 35.347752 -0.0082478523
-70.955322 -6.5886812 -30.620092
-55.911636 -7.7806768 -8.1529083
-73.921539 -3.2131891 -36.190475
-65.948105 4.4922767 -29.448187
-90.733055 19.625515 -15.730485
67.783142 -18.82126 -13.901335
-92.611694 -26.081802 -4.0827661
-96.385773 -19.422033 -5.4052372
-97.351158 -15.168886 -8.2931252
82.965942 -14.108263 -29.697311
-64.867813 -7.4596019 -21.140053
113.16542 15.834905 -18.932379
-91.91069 3.0596685 -30.880795
-82.487579 -24.450979 -20.031105
-80.757523 11.955318 -21.985146
70.510155 12.188749 -21.751715
53.613983 -15.162506 2.4783287
71.53521 9.0000439 -24.94042
-68.92865 -25.472706 -6.8698902
86.183327 34.717968 -0.63803196
-99.68618 -21.707993 1.5481724
-74.937874 -20.676874 -22.164133
-103.03189 24.292889 -11.063114
-64.778381 -20.795086 -5.6780772
-101.9624 3.0051489 -21.945938
89.820786 -15.16186 -20.949591
-46.667404 3.7174091 -4.577538
96.305252 -26.47011 -0.47101068
-78.51516 -38.696781 -7.20332
-75.16468 2.3465798 -33.009418
-49.173714 -11.52466 5.1200309
-60.160439 8.5407639 -26.815235
-93.917213 -21.096256 -7.222043
73.020294 -32.754139 -7.3749743
-72.548187 -5.6696801 -31.791754
50.6026 -21.738575 13.313171
-96.296776 30.385952 -4.9700499
-48.75893 2.86831 -6.6863327
74.288696 -16.004745 -23.918159
54.005642 -8.7441187 -2.4939454
86.869537 -11.055661 -29.229448
102.74777 -10.549269 -5.2808442
98.466278 25.992874 -7.947587
-52.480621 -7.2171149 -1.8642244
-69.643921 26.328239 -9.0277615
61.841057 -0.99221647 -23.326912
50.546932 20.184887 -15.171112
109.27714 -21.819145 13.536859
-50.039909 -2.8828337 -4.7467937
-90.04985 32.948418 -0.99204588
65.15921 3.4858649 -30.454597
100.96513 10.066531 -25.289471
-62.623978 -3.2233572 -20.202984
-110.16993 14.582285 -19.358175
71.16806 -30.959419 -4.550209
-76.894379 -40.421024 -5.1869173
-51.786861 -17.704264 9.6040564
-59.478294 2.9593916 -21.937031
-79.721001 19.539906 -15.816094
92.852325 32.654068 -1.2863979
94.240837 -26.72578 -1.1348383
94.733711 -21.9631 -5.200501
86.885948 -32.571262 -7.6906395
100.55403 -23.783253 4.8507352
104.81207 -15.000536 2.089745
