# .PCD v0.7 - Point Cloud Data file format
VERSION 0.7
FIELDS x y z
SIZE 4 4 4
TYPE F F F
COUNT 1 1 1
WIDTH 1000
HEIGHT 1
VIEWPOINT 0 0 0 1 0 0 0
POINTS 1000
DATA ascii
66.847908 -15.409554 -15.990406
107.08829 21.925495 -10.234483
-49.011803 -5.9821949 12.157841
-106.289 -13.161541 0.34015656
-54.667435 13.532104 0.64189625
52.614143 -16.146967 4.876792
-71.740456 -9.2923393 -29.026791
-82.564728 27.76689 18.605995
-64.126251 -9.0659742 -18.484936
-79.98098 -34.952011 -15.021095
-82.968735 -25.064445 -20.737089
-78.628754 -12.639717 22.716282
-104.18565 24.890688 -10.465314
105.65967 8.9339933 4.7774091
-56.075264 23.787926 -7.6229372
-48.225224 14.056312 -8.9930611
99.026688 5.2245855 -28.316532
-60.145412 -18.357971 -3.5631294
64.188095 -17.024973 -10.6134
91.43605 -33.082188 -0.74464321
-83.406288 5.4363661 39.746365
62.902214 -5.0867195 -20.733126
-64.973015 27.523907 1.2245274
54.222191 23.437572 -9.8932467
-110.54112 16.008238 -19.347759
75.071114 20.34119 22.688244
87.751633 27.91028 -7.4457197
-47.457794 3.7883391 -7.7662663
95.66758 16.564093 11.278395
51.20208 -7.8862519 -1.3869462
71.466141 -23.497276 11.858723
68.085121 -20.555408 -12.594251
-69.922462 32.109936 3.6381457
63.90287 -20.498329 -6.7366781
103.89829 -18.69717 16.658829
60.725189 -22.001186 -0.73984981
81.879135 14.841722 -20.514275
-92.948883 -9.3931417 25.962856
-98.581894 19.198421 4.522562
-78.643028 20.923265 27.157671
-57.198532 -20.335024 2.5814791
115.08441 15.318329 -14.935655
58.114471 10.792856 8.2560415
-60.824669 -1.7833204 24.665043
95.212555 7.2019358 -28.154064
77.413513 28.3251 18.017014
-72.8881 -7.130651 -32.811501
79.650543 -36.948185 -1.5921845
-97.322594 16.608639 8.893281
79.066238 13.369244 35.310196
56.60294 19.715002 -15.640994
-68.150085 -8.7980385 -24.443489
106.74087 -7.7745385 -4.407814
86.543106 29.46607 11.280492
115.35491 -3.6329126 3.6327848
-113.35301 14.908766 -12.077494
86.091782 1.5094295 36.865429
115.17954 -15.521236 15.273094
97.890167 8.7924957 -26.563507
-73.908836 36.798374 4.5873408
-53.720863 3.9670162 8.8683138
-76.878105 -0.9839468 -36.339947
-84.58815 -13.440127 -30.07119
100.28177 -11.667653 23.688347
52.955254 -4.4843731 16.236959
77.591698 8.7014275 37.892689
76.875069 -36.680435 -8.900198
79.448761 8.6838951 40.53653
55.068871 20.960838 -6.2191167
110.76759 18.900902 -12.413254
91.22258 25.515656 -9.8403425
-100.2161 -1.2111206 22.620974
-94.485527 -4.7047391 30.65126
92.801659 25.376389 -9.9796114
-80.508064 -16.721622 -32.559856
-88.767197 -31.107925 -6.4932847
-73.375473 35.850601 0.49460268
-82.530678 15.469585 -19.886415
-47.348053 16.747068 -18.608934
75.533852 0.19499528 -35.161007
55.430172 13.462931 1.7897577
-98.941528 -13.774315 21.581684
105.24928 14.716431 -20.639568
50.9758 3.6470704 5.3061137
-64.808769 5.8334045 22.682741
64.834442 24.695585 -10.660415
78.742661 25.890007 22.331831
51.427334 15.122911 -5.5311527
-104.88828 7.5502043 -22.352539
71.185257 -30.37529 -7.1586614
-65.905113 -20.450464 -9.616169
78.154617 3.1614351 -32.194565
98.985977 0.15551209 22.994005
-115.07748 17.748697 -17.356236
96.52446 15.993268 10.637388
-111.07085 15.69362 -19.66238
109.56058 -9.9995193 18.194153
58.096104 10.229371 8.7935448
55.50359 -18.747463 16.608536
-111.49686 3.1440547 2.3122354
-52.445381 -16.459986 18.896015
69.598312 -14.345323 -20.944332
-47.150772 -0.9457655 -2.5979691
-72.355782 32.1297 -3.2263005
-79.351273 20.111401 -15.244597
49.843399 17.160219 -9.8084984
69.751678 14.838346 -20.517653
68.387848 19.541487 14.036296
-67.565895 18.881443 -16.474556
-59.850536 11.851763 9.652317
49.195148 -13.425818 6.9908752
96.560165 20.514221 6.0659585
-68.776077 28.083317 6.0435038
-68.24588 -32.955925 2.4000745
-73.087814 -27.44825 -12.776352
-63.357704 -28.28647 7.0695295
-98.767349 7.6140122 -27.741987
-95.023567 -22.387197 12.968802
-60.305862 26.432768 -8.923234
69.76474 21.41671 -13.939289
-111.42981 -8.1793556 2.6282306
-68.221565 16.46958 16.873034
79.571793 14.120167 35.274258
-46.504795 -11.804937 14.435108
-79.436516 9.5237293 39.679371
99.159607 -4.028965 26.93293
74.665657 -5.0259466 -37.43008
-104.61816 10.425305 -24.930695
-83.281265 16.018715 29.340826
-55.800568 -21.294712 5.5182009
-62.282784 -12.943733 22.412266
-52.240314 -15.02455 4.2830524
-97.508972 10.875447 -24.480551
-64.04158 14.137333 -21.218666
-104.93294 -15.428698 0.6895237
-60.497448 10.864345 11.554617
-64.900589 23.959621 -11.396379
-87.540581 -18.573275 -20.762632
-109.94888 -10.706387 18.351871
-78.624962 -35.940845 -12.114536
-64.341942 27.49297 -7.8630309
-95.986122 -27.736591 7.6194072
-48.084229 5.7916756 -0.92782307
97.415382 -16.401314 -8.9693842
60.66082 24.722357 -10.633639
-86.097382 22.633223 18.743711
-73.683601 -15.495145 -25.572035
70.523697 20.151573 16.446785
-92.53109 -9.147831 26.208168
-58.185242 17.705061 1.4439182
-112.70918 11.538042 -15.27984
-74.869339 23.233088 19.510998
-82.981682 -22.527645 12.828356
61.857407 -21.971928 13.384072
60.253338 15.960357 6.1133804
89.544403 -14.146595 -22.355455
72.315079 8.0280619 -27.327936
-74.018517 24.369387 17.171432
104.65771 18.99457 -3.8661652
106.44157 -17.8685 5.262887
-107.81516 3.5299859 7.1330619
-114.17568 15.657953 -17.325787
-74.381287 -5.4639874 29.892014
59.693165 1.9003391 -23.181858
46.852741 -2.4167547 5.5390038
-100.86985 -16.196798 19.159201
-48.935802 4.3747616 -10.442927
46.381691 12.481004 -10.024932
-76.105995 34.277359 10.215633
-113.30306 -14.16594 11.264037
-95.265427 -2.1496561 30.560871
77.386345 -25.099482 10.256517
60.136711 -20.322271 15.033728
58.16658 17.582743 -17.773256
64.921898 -28.435867 6.9201331
65.681023 12.872862 -22.483137
111.52171 -6.6837769 12.104912
87.053192 3.3917532 -31.964249
84.175522 37.25404 6.8408241
83.837692 27.504086 -7.851913
71.648445 8.4088306 -26.94717
-70.661041 -9.1706867 -27.621899
54.550522 3.4922647 10.516395
-103.48878 3.4748755 -20.256409
-107.56889 5.8315334 -16.842855
-64.532227 24.617493 3.5075636
-61.754726 -7.0528159 -17.144222
-78.680832 11.060555 37.073841
-102.05203 -23.606949 4.7935185
-93.381386 17.594482 -17.761517
111.89397 -10.490567 5.59587
95.008018 8.4752502 -26.880753
72.475197 35.406895 0.050893128
-71.556786 31.760307 -3.5956907
52.510925 -18.324986 17.031013
100.41944 3.8434286 17.278847
-81.225998 17.37829 30.887877
-78.980156 40.418243 5.0622396
-103.92776 7.0888162 9.0718966
113.62967 -7.7952423 10.235239
114.70387 -5.7009144 6.6217766
-68.203667 25.457188 7.8601189
92.516792 11.973845 -23.382153
-51.410942 13.30955 -3.7409725
-83.705261 12.522422 32.237503
-66.2537 -28.657492 -1.9021163
79.332687 30.699379 -4.6566215
101.96656 15.014557 -20.341442
-98.269493 -11.818721 -12.344067
-76.632271 8.051466 37.185806
56.780746 15.202293 -20.153706
81.530182 -32.27774 3.0782599
-87.554436 31.924028 -3.4319701
74.228081 -2.5311842 32.824818
46.79615 -5.2335749 2.1913586
62.270039 5.7528081 19.173002
70.956429 -33.934223 1.4217772
57.672867 16.078724 -19.277275
-98.784256 26.255241 -2.8204315
-107.97572 17.965435 -7.5294685
-45.540123 -1.4452949 0.17938519
101.17661 -26.002426 5.9509659
-75.531052 36.104202 0.74820423
-72.35363 -35.316059 -3.8702469
-65.965118 22.308826 7.8426661
-65.593933 -5.0288277 30.327175
-100.45139 -8.3006096 -12.776488
-100.57104 12.115755 -23.240246
-44.680904 -16.392866 16.443647
-99.506378 -4.0175543 -18.395994
59.763588 10.370932 11.010187
75.071037 18.410908 -16.945091
111.68823 7.056428 -1.8707728
46.381371 8.3849087 -5.9292865
99.297913 9.2957907 13.41258
-107.18224 22.004429 -10.446285
-58.666058 -24.169163 4.3401995
-70.20607 -8.6154118 -27.533747
77.097168 -39.648453 -6.2462902
91.769341 -25.55619 9.7998047
92.335258 13.410672 -21.945328
-78.933846 38.58577 3.2297697
-88.377258 -21.076393 -17.076269
-86.658363 19.797628 20.785936
-110.79289 10.202265 -16.654121
-63.964485 4.3639259 22.958212
-73.727798 22.482121 18.64757
74.606636 22.156124 -13.199873
59.601295 23.877665 -2.7260656
97.962006 6.8995299 17.698126
82.852951 -12.954747 -33.010536
81.919189 12.971419 -22.384581
-82.797668 -13.490142 -32.553322
-80.275215 -35.912479 -0.55647802
57.609627 -19.1353 0.80037308
89.114311 35.499989 1.6103106
-58.788704 -6.7452688 26.747677
112.83605 -18.231781 14.669408
-60.948627 -13.717582 21.638416
-91.182137 -1.3067327 -32.879192
-104.58757 2.5874557 12.640127
107.59827 -12.890711 1.920929
54.925503 -2.6945152 17.23348
58.009655 -15.962505 19.393494
-82.257019 34.592999 -0.76300168
88.461655 -16.888165 -21.14513
49.315063 -12.979389 19.58392
114.39508 -13.508703 14.866252
-90.714508 -30.447895 4.9081059
-75.196518 -30.811853 -12.394926
-114.23624 -7.5806928 9.1628799
-79.664452 -12.838894 -36.686569
-50.579552 -0.050366521 8.4431715
-82.500748 4.0102863 -31.345715
101.57294 9.3973999 -25.958601
-75.549828 17.259624 26.446823
-77.823799 -21.813654 -25.108711
-93.616699 4.1454983 26.597391
-61.58144 -16.957905 18.398094
-51.560936 -19.006987 9.2262859
-71.099007 17.290419 20.121553
-55.759808 -5.9077864 -9.8110752
86.855568 -34.232983 -6.0716882
-57.157326 23.337662 -12.018337
109.25457 13.264734 -4.6373343
53.49604 11.001682 -23.519064
-100.47508 -6.6507502 -14.392834
-66.667397 -20.120399 -11.024266
72.140198 28.963379 -6.3926225
-66.459251 29.810696 1.0396111
70.369415 -30.906059 4.4499407
-58.151649 -5.9971962 25.098667
85.56073 25.393824 16.742043
58.400806 -19.639015 15.716982
66.365837 4.8584814 25.859716
75.790398 10.214529 -25.14147
73.930031 33.797142 7.6185389
100.27632 9.6989336 -25.657066
-111.17282 -5.6840835 11.598647
74.945068 23.936512 18.914663
-71.075584 -0.80112648 34.554874
-69.133972 -28.374426 -6.2585449
-98.964798 16.795317 6.3841534
79.769669 -30.900969 4.4550309
114.21132 -12.007084 13.624516
-72.345932 -11.403105 23.952892
61.705322 -5.8845005 -18.242668
77.062912 36.223358 0.8673588
85.963638 6.6261044 34.939957
60.528584 12.74971 -22.606291
-87.44429 -35.7519 -0.39590025
-94.957581 26.71962 2.1269727
-80.490601 12.255177 -23.100822
-64.822502 -14.402166 -14.133404
94.748802 16.11091 -19.24509
65.862961 10.354664 19.652351
-72.615311 20.546034 19.010338
96.294189 2.4143298 -29.370653
60.309757 -22.443441 0.28991699
-78.592239 20.711927 -14.644073
-98.763168 2.5602078 20.904423
-60.555862 1.6790411 -24.180613
-62.345551 27.098301 -8.2577
-60.254692 -9.5722103 -12.503445
81.799927 -31.715893 -15.738606
88.910126 29.537209 7.8618546
-87.477348 30.214329 9.2110023
91.882874 9.1540508 24.040871
-115.25226 -1.1491251 1.2944353
55.869476 5.6211543 10.252803
62.386242 -24.698524 -0.39161563
-112.36452 14.785334 -10.556118
59.880188 21.465288 0.080730677
-91.448128 -14.5365 -19.273249
68.996216 10.915709 23.522436
97.028824 -27.124741 1.2073584
56.439209 20.448864 -3.7691758
88.034531 21.766312 -13.589686
-92.268112 -6.5780816 -26.072018
113.28496 -8.2833786 5.3558745
61.457409 -29.329376 5.5528088
-75.775841 -32.067383 3.2886176
-99.628761 10.357534 -24.998466
101.97417 -5.1323338 24.05587
-62.838684 14.465824 -20.890175
88.625626 -0.94061995 34.415382
-66.399033 -1.3857899 -29.379364
-68.838715 23.296715 10.918693
78.563744 6.8400226 41.128777
-49.708096 -20.98946 13.829092
76.844986 -38.623772 -6.9143295
-63.134804 9.3163872 -26.039614
107.90115 -10.352643 20.894079
-79.465866 25.031397 -10.324605
64.832794 7.6991997 -27.656801
-111.68617 -1.0391946 6.2277374
97.150185 4.1367855 -29.882542
-78.536804 27.448904 20.481817
70.891548 -34.645115 0.71088457
45.861858 1.334528 -3.0554409
73.205269 -35.19239 0.16361094
55.019619 -10.510535 24.845465
-98.946762 17.390717 5.8142548
-51.641579 -21.046448 14.30955
77.321381 19.851927 26.359894
-89.213219 -24.091419 11.26458
72.302269 -22.928638 12.427361
-51.177444 17.668839 -17.68716
-45.988941 -13.350794 15.251431
-66.776955 -20.303015 15.052984
-110.20115 9.8240929 -2.5353775
85.81514 -12.289265 -29.486816
82.069725 -35.332783 -11.74015
100.72735 26.584929 -8.7710724
47.022053 10.260502 -6.898809
-112.96799 2.0613756 -5.4371595
-86.502197 26.199797 14.60463
70.76429 -12.839165 -24.099447
78.362473 -19.201963 -28.482204
89.21524 -32.245605 3.1103935
-81.752708 20.2202 27.301081
85.696457 27.001198 -8.3548031
-93.595177 -8.6288242 -22.144508
75.256943 36.240726 7.0515051
70.592789 7.6858807 -27.670118
50.285118 -3.6820202 -4.2943892
74.897827 14.976351 27.808018
-100.16094 21.687662 -0.19981194
88.862 20.275333 -15.080668
102.21579 -21.480991 2.8991623
-84.875626 17.284542 25.820227
-48.113136 -16.074205 11.169471
67.735382 8.2525587 24.402483
-87.679031 20.490528 18.649574
69.48008 -32.366764 -2.7556734
-89.545021 6.4312878 -28.924711
-68.71347 -12.042225 -21.996065
65.395172 -25.281706 -4.0637531
-90.282135 16.765511 18.693222
-75.499687 11.992125 -23.363874
45.359924 -8.1965103 7.1854444
86.545143 37.446911 2.090914
90.692093 21.831854 13.0471
-66.44931 -12.625687 22.730312
70.473801 -15.677779 -20.850006
-79.12085 -30.8943 -17.862375
-113.788 9.2061377 -11.42223
-81.368118 -20.877428 -27.18774
93.173943 7.2983694 24.070679
-107.10463 -3.808733 15.476632
91.605591 23.432781 10.15427
92.589813 0.52516413 31.669975
114.01274 2.2136228 -0.31536686
-69.210197 -30.229046 5.1269541
103.51468 -17.43903 0.69413662
88.050583 13.975225 -21.380775
66.091866 -20.481924 14.874075
73.069855 18.220028 21.979174
-46.932465 -8.681057 5.4460635
64.728844 -4.1878176 -24.215296
57.958229 -3.1144133 -15.713517
-79.366722 41.02005 8.0843554
-112.58611 -14.042354 10.126516
-44.887066 -17.811665 17.469328
-82.930153 2.8741612 38.230164
86.904709 -24.171236 -16.063938
60.14513 1.5454798 20.375221
-75.812927 11.697485 -23.658514
107.20862 0.75357533 -12.274414
64.881714 -16.584538 -12.034777
-93.61615 17.439152 13.304522
-71.686317 -35.164352 -3.0782242
112.2753 -6.5189724 2.1635714
89.637466 -5.3391733 30.016827
-49.935928 5.138967 -12.621544
-64.900764 24.015572 4.6306763
63.706757 -15.565135 -11.392517
-64.523506 -1.1717514 -26.940973
74.138084 6.368433 35.341492
-54.856056 18.964169 -4.5234184
-57.400017 25.601255 -7.5627613
-108.27631 6.1223316 -16.133209
-103.80963 -2.8687754 -13.459009
-68.157112 2.786078 30.465385
-62.556885 -14.431299 -10.90017
59.452724 -21.694504 0.75301957
-53.574776 9.7805634 2.8481655
-66.456818 27.666708 3.1801531
65.227905 8.5973969 20.511509
-85.123161 -36.11916 -6.6355338
63.391483 30.827169 -4.3153858
86.586334 -7.8478141 -32.837605
67.265106 -6.2880068 29.067993
87.214508 -29.65807 -10.138981
-49.590714 2.1815238 4.8128371
-102.56923 -1.716568 19.798544
79.60936 40.73996 8.7075872
-93.188309 -8.6616001 -22.687136
-57.565197 -14.823762 -3.4483309
-80.848549 33.663597 -1.6924008
-93.125839 -20.036537 -11.400547
-91.924286 -15.708723 -17.427639
-93.080215 -20.667946 -10.833662
71.688255 13.209044 25.036264
83.611237 -27.824459 -17.068434
-107.31814 3.672411 -15.038362
111.47015 -13.781771 19.275831
-95.065369 -5.3860168 -23.308132
92.613968 -20.951267 -11.209729
96.193619 -19.31809 16.037909
72.179558 14.789099 24.151018
45.846695 15.473332 -13.773854
-82.572319 8.6869545 -26.669044
-79.800705 16.949804 -18.406195
-63.756577 -16.872683 -10.155425
-83.850456 36.339188 0.98319054
-87.176239 -19.069429 -20.781736
-114.26541 2.1242456 -3.6651726
74.997971 -3.7329206 31.623079
-101.92725 5.3212252 -24.31111
92.699989 31.162981 0.87635159
-85.872299 9.1224928 -26.233507
-80.114601 -9.325963 -40.511967
92.105179 -26.653774 -6.2267537
85.769516 -10.689243 24.666756
61.461838 -5.6645799 29.447411
-90.318275 -2.7570672 -32.650555
-52.257843 -20.899668 10.133378
112.69669 -14.450789 10.691324
-70.057297 26.714493 9.2242727
84.236336 10.056011 -25.29999
-109.79344 -9.8914948 17.756798
100.18943 -5.9903159 27.43787
90.96772 20.666792 13.822361
-44.660397 2.6002989 -2.6220713
88.037735 9.614893 29.017923
-93.613632 6.1554303 24.591814
-50.363487 2.3756135 5.7116227
67.4645 8.1561003 -27.199898
-58.025085 -25.53915 6.6166677
63.829319 0.69305897 26.437925
-105.51741 -10.063106 23.975708
-85.46067 -21.379953 13.976046
-56.620136 -11.178219 24.17778
101.26669 21.66361 -1.7395382
95.882805 19.719994 7.818119
109.08212 13.121541 -4.2502537
-80.9673 -39.545586 -4.1895847
98.023438 22.83316 1.6776118
-64.94413 27.113382 1.5941982
-91.187225 -5.5011897 -28.67754
63.399509 -13.27652 22.079479
-82.033043 6.8759608 40.248856
89.191055 18.790445 18.21133
88.062973 3.063482 35.533634
103.18697 6.2185192 -23.426889
-60.413464 21.54287 0.75731945
-67.721603 -18.835697 16.520304
45.954678 -13.433558 11.581376
-84.623405 -34.411461 0.94454145
107.59856 -7.6390018 18.608381
88.428314 -13.994323 -24.086132
-86.748894 5.9815583 34.473976
-108.31025 21.333145 -11.370259
72.112572 19.26799 -16.088009
68.694717 -22.028147 -11.983612
-90.827461 30.829803 -4.5261974
92.373703 4.5582418 27.942537
111.9677 -15.770958 10.98055
97.009903 -24.743109 -1.2010336
79.586525 36.363621 13.051641
48.132481 8.0742502 -13.00634
67.686287 15.682241 16.903374
-92.030998 -21.389923 -11.59552
-108.74996 2.3235207 -11.664553
45.971584 -10.121157 11.997246
78.320084 12.760794 -22.595205
-93.687546 21.962463 8.6802301
63.019386 16.727116 9.2584419
61.296432 -12.402661 -11.146252
-81.769745 39.41687 8.0803022
-72.867729 -4.0298495 -35.883499
70.626045 26.281681 -9.074317
90.890343 -3.2874384 32.068562
52.007072 -20.889381 14.466618
-56.603065 11.38155 5.529871
-88.671402 34.225742 3.5109317
62.553749 -2.4624386 -22.864594
45.7813 -3.6985593 5.3055453
-79.543434 38.541172 3.1851745
-114.75539 9.806879 -10.65487
64.568787 19.068066 9.1086998
77.202774 -20.657206 -25.386885
-89.703087 -19.87141 15.484589
-63.117859 0.57100725 -26.695829
-56.796345 -15.966321 -1.2184401
95.711777 -6.2895832 29.066418
-70.558121 -32.722256 2.6337461
47.847244 16.680504 -12.151803
-62.849995 -6.7459803 28.61002
-80.824211 8.6166172 40.217762
-67.411072 -6.4818501 -25.714537
56.803719 -9.5496035 25.806396
-100.89171 14.363035 -20.992966
-78.049797 -20.239195 -27.002773
-80.052139 -33.711849 -16.214405
-44.965 -15.875418 16.327972
-69.849777 -30.571327 4.7846723
-79.300217 -5.3704357 -40.726437
-98.669495 0.084628105 -23.681736
-86.624573 21.800873 -13.555126
-95.495033 14.548517 -20.807482
80.241608 4.1701264 -31.185871
108.48843 13.177449 -22.178551
-58.409855 26.148914 -9.2070866
-72.931488 -11.437479 -28.566038
79.922501 -39.359535 -10.53086
60.05035 -11.216954 -10.569713
-73.960785 -36.978745 -4.4804392
-61.125877 -24.857697 1.5499954
-81.658188 32.67791 -2.6780894
72.110756 25.150524 13.692293
-113.18939 -13.775604 10.712927
65.021942 -16.346956 -12.470662
73.154129 -33.99065 -6.3277311
88.812317 34.384258 3.1531153
71.884422 6.7772365 31.745506
87.383392 37.071823 1.7158213
89.55661 30.217442 6.2673473
76.731667 -33.729599 -11.648232
-63.723213 -20.234861 -6.746067
46.45557 15.153294 -17.71385
-106.31335 13.452664 -0.66572177
-67.020447 -17.037394 -14.606569
106.48222 -5.0744896 -7.4736376
-91.195679 30.095951 4.0708237
72.419083 -34.427002 -4.8518615
84.444214 31.025932 -4.3300681
85.938278 23.92123 -11.434769
-85.639626 -1.9678454 33.388153
-97.856079 19.756462 4.9909906
91.219833 5.8867416 28.24588
-79.947983 19.457747 -15.898252
66.97924 -10.033546 -21.552145
71.053398 14.555493 -20.800507
-46.946056 9.1011124 -12.355326
-109.10989 -12.997606 4.1656046
64.642456 27.857061 0.42388868
-94.160454 7.5273123 -27.82869
48.472343 2.6814728 -8.0942068
-100.02393 9.6226606 12.058968
90.827393 0.14614439 34.541473
-53.682552 -2.5909398 15.372091
-73.684341 29.468307 -5.8876934
110.67534 -20.031509 13.413393
58.203178 -3.4297771 -15.744568
109.43844 -1.6796023 10.046966
-93.445129 -10.742217 -20.243317
112.26929 -2.3970194 6.7609138
-78.368652 -14.238781 21.117218
81.079269 -12.864532 -35.609138
106.34055 -13.78076 21.575241
106.38698 -19.576454 6.8936338
-53.797649 12.72669 0.21723652
113.51342 7.661819 -10.266233
-61.005272 -26.766356 8.5896444
-58.846657 -16.76688 -3.3174934
-86.205063 -7.461113 -33.763531
-68.523697 -10.961758 -22.808142
-84.06971 -27.350063 -16.894447
83.762695 -18.786184 -25.892517
63.584251 -26.487541 -0.29685795
96.997963 26.146008 -0.18498993
-69.147758 -0.38039255 34.975609
-86.10582 24.292725 17.072262
-103.07288 3.957365 13.412348
-102.60664 0.6352644 17.393806
106.5687 -16.754578 4.3287401
-94.59301 28.442919 0.91924238
-72.400803 -8.0444908 -31.208519
49.168533 -15.649461 9.2521582
-104.47076 -17.744541 2.3517511
86.205444 -25.999447 9.3565521
-63.345451 26.58213 -0.13543749
-78.69841 9.842288 38.316982
66.457283 -3.2615471 32.094456
75.807175 -26.343534 9.0124645
107.15193 0.12904787 -11.730052
49.575951 -13.649395 6.6759129
-60.040478 2.7138371 -24.48654
-109.09744 15.29545 -6.4458351
112.71602 -2.0769992 -1.6551256
88.697227 20.926369 -14.42963
88.072388 -35.207741 -3.3760738
-112.52439 19.523668 -15.832329
-79.249985 -33.382793 -15.556515
-55.332104 8.1819077 -23.295897
49.708614 -13.401402 20.562504
-71.767548 33.922367 4.4350853
-96.571854 -4.2035742 30.767216
67.804741 18.693958 14.059179
78.278412 -4.8800697 30.475929
91.859497 32.386662 0.84131324
-78.565163 -33.490543 -14.480269
-102.6165 21.377071 -3.3619361
-100.57401 2.6431026 18.260578
-86.250839 -5.4064817 -35.753418
-103.0872 25.266079 -7.9166241
-55.041954 -15.422574 19.933424
114.3654 -10.325523 8.9260025
-86.115372 -34.299431 -7.0520477
110.61199 -5.0155373 11.723227
-101.27164 1.0728168 18.844269
70.182961 -29.390888 -6.7255774
-77.176254 -23.475281 -22.531301
-69.156174 0.18046761 34.483898
-107.88908 -14.868484 4.3099756
57.831318 21.038158 -14.31784
69.840881 25.534933 10.097768
-102.75749 -4.2466669 -13.569073
-99.019196 13.782109 -21.573889
-90.231644 -14.299271 -21.23086
106.50478 19.052017 -6.5357938
87.379814 -14.98277 -24.580502
-55.361473 5.370307 -20.525841
68.312263 25.715778 7.7551098
60.998459 0.49739885 22.630114
-66.181938 5.5804067 -29.775595
73.380051 -2.2266541 -37.582653
-97.759293 -21.133675 -3.7506578
112.45059 15.819599 -19.536398
-84.356529 9.6395044 -25.716496
71.638779 -7.2901173 28.065884
-65.875969 -13.077158 -16.948259
71.299934 -25.013105 10.342894
-112.22728 1.0249405 -5.4482536
-83.695572 -16.169065 19.186935
90.013138 28.271843 -7.0841565
113.91306 7.9826794 -5.9434376
69.193031 -10.272327 25.083673
-84.781929 -0.68905544 34.666946
-54.356991 9.9811897 3.7537742
66.152466 -22.905878 -7.5105577
-108.15874 8.3200626 1.8570793
-70.706764 -9.7195301 -27.137732
90.453308 12.665236 22.551428
90.260857 2.0075331 -33.348469
104.0395 -21.297035 5.2943454
113.03075 -5.881659 9.1686764
-83.45224 36.073803 0.71780264
93.26091 9.9510841 21.294983
101.2704 -2.8657136 -17.053123
45.834663 -5.4118967 3.7294493
87.997101 -21.131268 -17.559017
-89.395477 -30.790232 -5.9224272
-96.574341 -21.245811 -5.3143086
76.646332 28.570557 16.686592
82.413803 18.781822 27.804504
-113.73137 -4.4326305 6.728816
-77.860657 26.144405 -9.2115936
-74.750031 -3.5580664 31.797934
-98.004868 27.038765 -2.5017338
96.267014 22.894249 -12.46175
-102.93932 -5.8167019 -11.741884
-48.19516 9.7996883 -14.820423
-83.441391 -5.8564148 29.499588
-113.23383 11.778524 -14.778335
-89.993713 -20.106413 15.249585
-46.270199 -17.90601 15.607614
104.91036 14.001193 0.76990509
-101.12376 -14.946397 20.409603
74.634811 -17.624651 17.731346
-56.873791 1.7260153 -19.020304
63.808655 19.291147 7.8106079
66.17572 -7.3793707 -23.06996
72.318581 8.3090096 30.827723
-48.942833 -3.5233684 -2.5547466
54.570427 10.323469 3.7133355
-76.268364 -12.281238 23.074762
65.629677 -19.574303 -10.102792
74.620354 -29.211868 -13.180088
85.640427 -13.345903 -28.677252
-93.11702 5.7087922 -29.647207
88.851929 -18.075861 -19.4055
103.04103 -7.5202274 24.934971
-83.884552 25.391773 19.114586
61.193535 -28.510002 6.8459978
44.802864 0.6605106 -0.43725842
-64.121643 -28.59016 6.7658405
88.061302 17.85498 20.744509
52.387627 2.2479639 -13.197796
91.851639 9.9473228 23.291769
67.759193 13.603562 -21.752438
-71.813599 -27.4897 -10.932873
100.88285 8.649951 11.816959
71.19458 -26.047333 -11.499796
-96.631653 -20.897032 -5.5820298
-103.14804 -7.2747793 -9.9886312
90.914322 -21.038523 -13.526146
-48.967522 -1.0497141 -5.0633197
97.065277 27.428188 -7.9278116
79.263664 -40.453648 -8.5050049
106.56642 2.922174 9.5068855
-90.559601 -28.422091 -6.6442356
80.889702 -26.225155 9.130847
61.414444 28.703323 -4.9875164
68.295288 30.563963 -4.7920361
49.742619 -8.2246342 1.0154467
-62.044819 -6.8038754 -17.803421
68.305008 7.8733416 25.58729
-64.179153 26.235199 -9.1208
-71.390656 7.4661617 30.358271
-93.765945 -15.686566 19.669436
67.52449 -20.037462 -12.31934
74.848679 -7.1802034 28.175793
-52.172596 20.245283 -15.110716
-86.783165 -16.90181 -23.505264
112.77486 6.532784 -10.18169
73.873413 -12.654354 -28.681259
-66.844452 -13.530674 -17.864395
51.947006 19.891159 -15.464839
-64.470413 7.3876095 -27.968391
-71.075813 -9.9253006 -27.453876
-77.308304 8.2256012 -27.1304
-74.400826 26.282001 15.799489
113.49484 9.7839804 -7.1532965
-67.029533 21.054426 10.60239
45.246685 -7.7495522 6.8986363
87.143173 23.243101 16.654827
-67.161835 -9.8060055 -22.037916
103.45935 -14.917803 -1.905345
-66.037613 -6.8582306 -23.395782
-93.770721 -21.945078 13.410921
-71.450485 -33.823864 1.5321369
54.890503 10.388306 4.101161
-71.146362 11.031533 -24.324467
-82.99073 11.798244 33.972187
53.32634 13.251207 -0.97381306
88.161629 29.164713 -6.1912856
-95.197929 -10.639816 24.716183
-53.805351 -2.9738131 15.928636
-59.503311 -13.229011 22.126987
-95.099846 30.886732 -4.4692698
-97.194717 19.070448 6.6123247
-45.789314 -11.045294 12.663614
83.186722 -27.029688 8.326313
-75.178413 -0.35031152 -35.706314
-73.86216 -6.3166838 29.039316
46.914635 -15.056412 18.266193
-70.14753 24.564434 -10.791564
63.05883 19.6577 -15.698301
98.658371 -16.460491 18.895508
85.79924 24.967821 16.83073
-52.924183 14.436526 -2.7278814
80.835884 -10.806067 -38.011806
-113.51987 8.9879398 -6.3926377
93.842834 30.788567 -4.5674338
58.055408 -1.0988512 20.064219
-62.498352 15.951155 9.2975416
-89.812637 4.4784799 -30.877522
56.648647 -9.9598932 25.396107
113.62028 4.9389577 -7.3922439
63.497997 -1.4140844 -25.248333
61.245708 15.495028 -19.860971
-110.81226 -14.904552 8.4800892
-86.672775 35.289696 -0.0663082
105.73989 -9.2042456 22.802204
62.183567 17.538048 7.2654686
71.257057 -29.357258 -8.2782345
114.27844 -10.038145 8.5156384
-54.521629 19.157959 -16.198038
-104.03706 0.56928062 -16.575418
-82.23967 -4.5666389 -39.922642
73.338341 12.02943 28.549477
98.5009 20.973396 -14.382604
-88.574829 23.800356 -11.555645
-82.776237 20.978683 25.095083
-52.710541 -17.729153 17.626844
96.820038 -16.443283 18.912716
108.59565 12.510286 -22.06954
63.781258 -25.578598 9.777401
-110.64368 -17.932392 17.423605
112.87237 3.450449 -6.9614582
-94.302689 26.418139 3.3546073
59.755531 -24.638918 3.2691917
-61.206993 -4.549736 27.972158
54.779686 15.083748 -0.75100255
-83.727798 -16.7969 -27.931137
61.323669 24.068165 -11.287836
-56.066216 22.95068 -6.7984838
-111.05857 -2.0370979 8.1132164
107.81733 -17.638605 6.9786229
70.829453 -1.4705734 33.885429
63.710472 -1.4260445 -25.536865
-92.830406 -3.8881168 31.467884
96.230949 21.935686 5.1100655
46.511673 -0.12506008 -2.5148416
-91.446381 -21.035204 14.320797
81.643066 25.258041 -10.097957
90.672867 -20.451067 14.904932
-111.63544 -14.919773 20.180082
84.348885 -38.317226 -2.961226
110.65578 18.199049 -17.15695
94.47123 30.122057 -0.5876689
-59.205513 -16.864412 -3.7274637
-115.15302 7.0098381 -6.7241826
-99.570282 -26.70702 4.3838358
-62.91304 10.322145 -25.033857
-55.292576 6.9789767 -22.037067
69.789597 5.7500234 -29.60598
83.357521 -17.737411 17.618587
97.594887 4.105504 -29.22233
-107.47665 9.8195705 1.3222156
-81.084473 23.365664 -11.990335
90.798523 -21.996126 -12.732315
93.83712 26.357347 4.0738239
-61.390667 -22.772667 -0.90950871
69.965904 8.8163385 -26.539663
63.800415 -27.581692 0.49158478
-96.448212 -18.626019 -8.1124735
93.931503 -29.166386 -1.1313095
-87.620308 19.520235 -15.835764
92.068535 -12.224089 23.131912
-55.6548 11.486881 -23.869118
84.664314 15.583198 27.820406
-46.485085 -7.631947 10.234241
79.96241 -24.433907 -25.512932
-60.829643 -22.96109 12.394911
70.151657 -24.867348 -11.204866
-86.489975 27.592808 13.228882
-76.983261 17.200184 28.533464
-92.563942 -25.712488 -6.5192537
53.599045 3.5312757 9.1317768
-79.512909 10.308752 39.002399
-83.304977 -35.775291 -9.5507126
-59.046867 -15.4861 -4.8814154
-79.126015 12.822745 35.94125
63.907158 -5.1726408 -22.068426
102.55965 -13.934507 -4.1610327
62.484085 -7.7012863 27.654715
-49.039383 -8.2794275 14.494085
-65.365067 -15.788199 -13.514682
-78.110924 -38.042519 -2.6865177
100.39746 -4.7064915 -16.446869
72.923317 -37.083344 -2.9086149
55.05043 6.6520958 -21.367735
65.075096 7.9555273 20.937267
81.083031 13.049715 -22.306284
111.35605 0.57153845 -6.2269635
98.312416 -9.1609068 -14.941182
-46.475716 10.674294 -13.26334
-48.050129 -6.2693028 11.084929
-52.07972 -12.063959 1.5495777
-101.75012 -2.2779531 -16.962433
52.965569 5.7488761 -17.51605
109.00801 11.80818 -20.784271
-59.480473 21.331005 -0.35027504
86.621735 19.780861 20.8545
-64.563324 30.917398 -4.4386005
-71.811531 -27.638855 7.7171454
-70.234184 -0.036275387 -35.392277
-74.313248 36.224201 5.7334394
75.044678 34.606026 8.3860264
57.899036 -10.845256 24.510744
102.39696 -5.7093263 24.034954
-91.492775 18.503704 -16.852295
-93.168045 -19.313866 16.042133
-113.45663 -12.565063 9.8803329
-93.333344 30.143721 0.99991369
-54.000484 -1.2023482 -12.028433
-107.48352 20.207903 -15.148095
-63.692421 30.486221 -4.8697777
-45.885437 -17.068699 18.2873
-96.396004 -3.2603393 30.072668
-104.98869 -21.835739 13.52026
-65.013947 11.282385 -24.073612
-86.59697 22.079605 -13.276394
-45.136414 -11.33136 10.636392
-61.272026 -28.291 4.776608
-80.201302 -7.9988189 27.357182
87.920547 -19.799871 15.556126
95.67141 -18.727291 -9.1097755
87.747841 -20.47901 -18.563791
83.119408 -22.766726 -22.82173
-102.9657 5.8908467 -23.412132
-81.452126 6.9778271 -28.378174
47.12941 13.731115 -17.244638
-59.204746 -14.616362 -5.9744205
97.033112 -28.095285 2.18397
-72.041718 -22.965448 -15.779726
80.658707 5.907105 -29.448896
88.559708 -11.41486 23.941139
81.390472 3.9103904 -31.445612
-104.0577 -1.14182 17.118771
91.256912 1.8991833 32.180977
89.094025 -16.159277 -20.979702
-83.574905 14.098503 -21.257496
-58.452934 -10.013406 25.342594
-99.822731 3.6312962 18.334873
-52.835613 10.07639 1.5069971
54.465645 -4.0504456 -9.8381739
-81.342133 28.644266 19.457647
60.950016 -24.529045 1.4700525
-114.89949 16.484915 -15.840708
-58.318329 -21.097168 14.258829
-84.826683 32.860363 -2.4956379
-67.078125 -31.706837 3.6491647
90.193985 -21.26827 -14.315123
53.616135 -14.150723 21.205276
-91.59285 26.876429 6.7286644
103.28767 -17.570433 17.785566
-64.247215 -4.5856228 30.770378
-83.476341 27.777849 17.305805
60.893147 15.88793 7.0906382
65.150238 5.6519094 23.347143
51.514435 4.2294235 -13.944363
-103.21168 -10.913619 -6.2598023
92.298859 31.001898 -4.3541026
-87.273987 17.48646 22.226465
-92.233253 -25.001114 10.354886
68.351524 -25.233925 10.122075
111.80974 15.461205 -10.4474
74.44928 32.674549 9.4754715
-93.214546 25.704189 -9.6518106
-46.027203 5.0636349 -7.0183849
95.128159 3.3972692 -31.958733
102.77789 24.75831 -6.9714074
-106.38406 6.2903242 6.3966289
-75.832664 -8.7439203 -35.362526
75.435356 30.437832 13.106722
-47.811565 19.830933 -15.525064
-111.24908 -4.1023498 9.9090557
-105.55479 3.6667442 10.192982
-82.633202 -17.875479 17.48052
101.91138 26.951162 -8.4048386
-94.531258 -27.420485 -2.0290203
-95.03418 -22.560522 -6.1777372
51.530842 -17.309381 7.5712385
-100.97319 -24.417912 4.0787592
-105.31807 -15.455833 1.2613277
