# .PCD v0.7 - Point Cloud Data file format
VERSION 0.7
FIELDS x y z
SIZE 4 4 4
TYPE F F F
COUNT 1 1 1
WIDTH 1914
HEIGHT 1
VIEWPOINT 0 0 0 1 0 0 0
POINTS 1914
DATA ascii
-12.163278 -30 -62.045181
5.0000896 -15 -17.055061
-25.462078 -9.1250534 -24.999998
-24.097004 -10 -36.625145
37.915833 -15 -23.560905
33.071762 -5 3.7648726
22.771435 -14.555243 25
-34.329338 -9.3068647 25
-3.2178979 -15 2.6056643
13.519434 -5 -18.511314
-22.211113 -10 -62.979305
-39.303848 -5 -13.247414
-51.281902 -5 21.594112
1.7859337 -30 -6.312367
-55.045586 -5 24.220423
-30.516556 -5 -4.4770498
2.8221879 -30.000002 -14.082707
-9.8040295 -5 15.773298
-34.282959 -15 -13.563941
-25 -29.464851 -42.038666
-7.2923279 -5 16.750612
12.398228 -5 -24.281483
30.392712 -5.0000005 -17.40485
15.476443 -15 23.714138
-5.0959969 -15 22.349903
-55.618713 -15 23.882879
18.649858 -5 -20.641079
-29.494623 -5 6.9986634
-25 -16.57196 -40.50988
31.631351 -5 14.89254
-42.093632 -5 10.126284
-25 -26.074217 -50.156979
11.929663 -5 -17.741356
-4.9680748 -5 23.221836
-40.816483 -5 -5.0125961
32.288074 -5 10.197666
-22.670576 -30 -57.547539
5 -19.707262 -57.660858
16.42334 -5 -15.821461
-5.7996607 -23.055145 -5
-60 -14.921507 -24.430016
1.7493415 -30 -42.282917
35.131874 -15 22.618744
-20.08322 -16.519331 -5
-21.954168 -5 18.007652
3.7166433 -10 -66.252281
-34.995102 -7.0131884 -25
-25 -11.404186 -70.702263
-12.799671 -30 -25.93808
5 -22.149521 -6.4174929
4.4926624 -15 21.914219
-21.526155 -15 11.735276
-45.296562 -5 -11.717686
-18.814152 -5 -10.086384
-2.214632 -5 8.5777817
-35.680733 -15.000001 15.997461
-16.991838 -10.311043 25
-5.199059 -30 -14.008923
-2.0778728 -30 -42.212254
8.2536392 -13.116841 25
-59.012596 -15 6.1200809
5 -12.5599 -39.625595
-25.000002 -21.10273 -48.840477
22.579681 -15 12.923214
-38.360085 -15 -3.2159381
-21.965923 -15.000001 23.608456
25.045156 -5 -10.976199
-14.1817 -5 -7.6419744
6.6852207 -9.9429445 25.000002
-39.91584 -5 24.394421
-25 -28.06625 -11.260572
-55.697857 -15 22.793715
-9.3933954 -23.128811 -5
-23.747654 -30 -61.5163
29.16728 -15 16.296766
-25.591635 -5.4640455 -25
35.771465 -15 -12.847948
-25 -14.561177 -67.262352
5 -25.521536 -74.393784
18.843182 -15 16.836937
-30.444431 -15 20.7512
-3.3158331 -5 -11.397091
-15.162079 -9.9023819 25
-24.419712 -14.999999 20.175167
-6.9038382 -5 -14.335907
-27.234676 -15.000001 -8.0581932
34.293198 -15 18.163837
-15.393219 -15 22.532198
-25 -18.410614 -71.362595
-25 -21.074606 -23.709917
36.061966 -10.488438 -25
11.822562 -5 -20.719357
-34.538681 -15 -21.550774
5 -16.78566 -42.874695
-4.7607384 -5 11.598359
-25 -17.282679 -15.132294
-21.702042 -12.299629 25
35.409103 -5.0000005 18.962753
25.488171 -10.526374 25
-44.41888 -15 -6.3972144
23.748142 -6.6465054 -25
-15.852528 -5 15.111004
40 -8.8391142 -11.502048
-1.5683546 -5 -15.084053
23.08164 -11.017926 25
-15.922957 -13.534129 -75
37.22683 -12.875044 -25
-60 -12.86739 13.21076
39.980846 -5 23.32259
-25 -20.652502 -66.18708
0.64127564 -30 -55.376236
-53.755501 -5 8.747714
-25.000002 -10.876145 -63.27615
5 -21.1772 -25.259161
-55.087856 -5 -13.457731
28.985977 -13.402778 25
-40.158943 -5 -17.981373
-43.578434 -15 -16.364487
-3.9057779 -10 -44.42667
1.8268735 -10 -61.401325
-40.686905 -5 -15.533966
-7.90944 -10 -49.90406
-20.640011 -5 -14.930282
-14.718536 -28.373659 -5
28.547298 -5 -9.2988434
-22.902992 -13.760061 -75
-24.22481 -5 12.539769
-3.2726579 -5 -15.174667
5 -29.623756 -57.011276
-31.982681 -5 18.975376
23.560474 -5 8.2184677
22.06583 -5 13.988678
-3.7498856 -12.985338 25
5 -27.618439 -42.051266
-52.531338 -15 21.036295
-12.536714 -5 -20.081787
8.9744225 -15 24.89978
33.888519 -15 -16.613029
29.630245 -5 1.4096222
-56.099567 -5 12.408004
2.7608299 -15 22.03157
4.2236166 -10 -68.790916
-12.326635 -19.649971 -5
-26.213684 -11.71813 -25
32.961151 -15 24.076834
-60 -11.767859 17.562935
-23.536003 -18.675228 -5
-24.447483 -19.886013 -5
-21.334011 -15 2.5343356
19.109901 -5 3.1466436
-40.862846 -12.411263 25
-34.212769 -5.5240078 -25
5 -18.3843 -68.918556
-36.986485 -5 12.549513
26.392588 -5 12.869409
39.068512 -5 0.37146759
-25 -28.680212 -70.091896
-37.885883 -5 -18.894356
-12.519689 -10 -34.318249
17.908674 -15 15.342512
-16.639248 -10 -44.706367
-8.6752548 -30 -9.2591028
-28.978666 -5 -0.074189663
-14.507466 -10 -40.138607
-38.377087 -5 -17.387096
-60 -10.313039 2.8755894
-37.186081 -9.6536741 -25
5 -22.71805 -52.414711
40 -10.989708 7.3544998
18.142679 -15 22.951756
38.06459 -15 12.527387
0.30298233 -12.045785 25
-25 -20.335747 -72.835907
38.483925 -5 3.1648674
22.42947 -15 18.325308
-59.898441 -5.3563018 24.999998
10.333805 -5 2.5864506
-17.237764 -5 21.833134
-18.436499 -5 -2.7524309
-21.888607 -24.393709 -5
-55.088757 -5 -7.6658554
-14.583258 -5 19.797417
-60 -12.688372 -11.387547
36.611149 -15 -8.0757656
5 -29.331638 -56.499973
-23.365772 -30.000002 -69.25264
-4.4538321 -10 -33.799549
15.979513 -5 4.4551001
27.970919 -15 22.996996
-15.656925 -5 -13.152659
-36.397671 -15 -21.233425
27.979959 -5 18.548143
-25 -26.44437 -47.991837
22.259377 -10.542276 25
-26.583698 -5 0.66440296
-17.6968 -5 2.3402739
-10.241407 -20.209316 -5
40 -5.8069439 18.216034
2.1273336 -5 -3.3494949
16.958904 -5 -21.043463
-55.127914 -15 14.253007
-12.543123 -30 -30.668892
-16.644081 -30 -56.954418
-25 -29.604794 -33.530312
40 -14.287525 23.173407
-25 -13.925143 -67.4319
34.649364 -5 -9.1859236
-60 -11.954484 22.335762
12.678847 -15 -23.5772
-38.181911 -5 -10.461033
-1.6994948 -10 -71.569008
20.245258 -15 19.191416
40 -9.3979855 -13.033295
-56.050613 -5 -18.39547
-24.185471 -28.025499 -75
-46.135468 -15 8.4623804
31.615746 -15 11.020275
-60 -12.367854 -23.417812
10.696223 -15 -0.59205925
-25 -24.301716 -24.347637
1.7372417 -15 8.5987434
37.070221 -5 6.9739103
27.412893 -8.700758 25
5 -13.964046 -47.67009
-28.271204 -6.9257107 -25
-25 -13.730392 -36.25589
5 -26.591364 -69.96357
14.823946 -9.5996246 25
5 -26.387661 -31.822857
40 -13.982533 -15.304668
-33.216991 -15 23.087219
-19.823561 -14.936625 -75
-24.645639 -30 -21.697493
0.94875717 -5 3.9564171
5 -19.398952 -56.431816
-43.686298 -5 5.7276053
-12.542812 -15 -2.2063093
15.030089 -8.1418142 -25
-21.797058 -5.6024632 25
0.28151965 -17.552952 -75
2.64678 -10 -63.312069
-39.699677 -5 5.7181988
-1.0263891 -5 -10.440136
22.83136 -5 22.904959
34.633453 -5 6.358593
-55.19455 -13.130594 -25
-2.8981686 -5 17.851173
-25 -11.443371 -26.812548
5 -12.527098 -34.362003
-53.572464 -9.4458866 -25
-10.867563 -10 -36.939903
-19.903904 -29.514771 -5
-25 -16.351196 -61.687195
-15.243031 -30 -16.011772
-34.181435 -5 -20.622215
2.9273107 -17.530182 -5
-27.680424 -5 -18.696793
-25 -24.625336 -73.33786
-60 -6.5221395 3.8465929
-6.0524921 -15 18.492615
22.63303 -15 -11.350407
13.992336 -5 8.8619881
-23.14867 -5 5.0070162
19.112745 -10.217176 25
25.636957 -15 10.163775
-13.647348 -30 -36.014935
-20.60248 -15 12.417624
-51.995003 -15 -8.3967953
5 -14.764284 -54.216377
-18.293999 -15 23.142399
5 -19.670639 -70.002991
40 -12.259487 -22.454498
-2.5605631 -13.869399 -75
-60 -7.029737 14.425327
3.6011283 -20.041523 -5
-43.520573 -7.3126864 -25
-28.252087 -5 19.148966
-14.741728 -30 -40.126194
-60 -14.154157 -13.689562
-16.907965 -5 6.4251366
-3.3013477 -5 -8.8097486
-27.828274 -5 9.4381456
40 -14.006689 -0.91738129
-26.640625 -5 -0.44473171
-6.8139839 -5 9.7696342
17.568073 -5 -7.6500978
7.0492525 -15 -20.028694
-9.466959 -30 -38.287197
-25 -22.871264 -61.402424
22.15181 -15 16.215441
-13.645878 -28.255516 -75
-32.342697 -15 21.14539
-23.702005 -10 -41.525242
5 -25.791323 -53.682781
8.4308147 -11.750484 25
-58.490715 -5 22.968798
39.733982 -15 -18.067646
-23.869934 -30 -68.753334
-42.167133 -15 12.138398
-16.931751 -26.83757 -5
-8.1368427 -15 14.638657
-11.492271 -5 -20.703735
-49.728863 -12.494986 -25
23.683636 -15 10.069391
35.861435 -10.985275 25
-16.315844 -30 -7.2290463
-12.895019 -30 -7.4092779
-16.017267 -10 -37.29026
-3.7020998 -10 -60.665073
-60 -10.359007 15.019329
-58.894753 -15 -17.631531
-19.203485 -5 21.211821
-25 -16.337915 -62.928207
-1.3007667 -10 -50.192535
-50.756145 -15 24.989008
-56.198723 -5.9551105 25
-50.882645 -15 -14.540052
-60 -13.542256 -1.4505873
40 -7.5679455 -16.776077
39.999996 -13.33644 -22.072929
1.4993191 -5 23.563515
-53.276615 -5 -8.7715464
7.3558998 -5 5.302166
-30.323891 -15 -21.32177
-5.2227554 -30 -47.139042
-6.0628009 -30 -34.05537
-12.481127 -10 -28.916178
-40.730316 -15 6.004405
2.7072124 -5 -5.2951508
9.1137085 -5 -5.7733326
26.584461 -5 22.652719
-3.3197069 -5 -16.644089
-15.045649 -30 -16.166971
-28.146376 -5 17.784367
-60 -6.9047017 -3.5121498
-2.6617908 -5 8.8637676
40 -11.283634 14.179122
-17.244392 -5.6895232 -25
5 -27.788673 -74.168564
-32.83902 -5 7.6550398
-51.013138 -15 6.437077
-18.510777 -30 -54.17141
-17.601089 -15 -0.79767561
17.573193 -15 -10.18469
-18.605429 -30 -46.083637
-2.5472565 -6.4541268 -25
-12.952939 -15 18.17695
-4.0807495 -30 -6.4154921
-40.281513 -5 24.397072
-4.0726271 -17.515343 -75
-25 -23.858868 -9.1463251
-7.8056498 -30 -53.740952
28.950354 -15 14.285547
23.604557 -5 14.586185
-1.0760407 -5 -23.065166
-6.1785707 -24.743835 -75
-25.213121 -15 -9.66716
-5.7857208 -30 -52.021873
-5.6829157 -28.808918 -75
-7.7881069 -29.430523 -5
-25 -22.048693 -54.921432
36.80328 -12.107695 -25
8.7908945 -5 1.9898987
1.6352906 -10 -57.030712
-15.316132 -5 15.199201
5 -26.467257 -14.239316
-1.5032201 -30 -50.409824
-15.345247 -30 -8.8313465
38.208805 -14.657723 25
-36.347633 -5 -17.089653
5 -29.868368 -74.94696
-25.000002 -27.093708 -68.480209
25.322544 -9.0497446 -25
-36.62878 -5 -3.079299
-12.333168 -15 17.823381
24.116182 -15 -4.4026928
-11.930264 -30 -74.436905
-58.025925 -15 4.05161
38.381527 -15 11.855317
29.84634 -15 -14.842507
-21.492165 -10 -50.322346
5 -20.977268 -27.505913
-22.493237 -15 1.7758396
-24.404331 -30 -42.740711
5 -25.467442 -50.401222
-50.973324 -5 16.709921
-31.118504 -13.321585 25
-23.923018 -14.690013 25
21.473501 -5 14.989123
37.632141 -5 7.488286
-25 -28.371559 -53.723305
5 -10.282831 -47.503162
-13.04139 -30 -34.318081
-34.742546 -10.980371 25
1.6937194 -13.462857 25
-26.848785 -5 4.1089044
33.814022 -5 -20.847683
-6.9764347 -5 1.6627083
33.479794 -15 -24.20612
-11.430986 -10 -52.220013
19.980785 -9.9004765 -25
-46.011276 -9.627883 25
-54.193378 -15 -11.895127
35.299767 -5 24.447546
9.8347321 -5 -6.3487358
28.130447 -15 -16.90181
16.441139 -15 19.23135
-22.212902 -5 -6.4370804
-7.5691319 -5 -8.1363592
39.095699 -5 -6.9537582
-26.725903 -5 13.245308
20.751114 -8.7712622 -25
39.192436 -5 13.230267
-20.728455 -28.351782 -4.9999995
15.345224 -5 -3.6941471
40 -8.5678015 10.950827
3.0318913 -10 -36.909184
-23.23951 -5 13.940119
-56.601048 -5 -18.98102
-0.96753502 -15 14.210747
-9.8449345 -15 24.126165
25.82481 -15 -10.122055
26.424746 -15 19.563084
-7.578476 -5 -14.851166
1.2691746 -5 4.0936594
-16.244843 -10 -47.109844
31.905666 -5 6.0101156
-22.849289 -18.618074 -75
3.4380693 -15 14.733392
34.102848 -5 -24.837927
16.983631 -13.944382 -25
-16.641071 -10 -61.022484
-59.654922 -5 -1.2171717
32.274979 -5 -10.407619
5 -25.999157 -71.943268
7.6316261 -15 -23.614918
11.877529 -12.473445 25
11.235113 -5 -4.626421
-54.494289 -14.758477 -24.999998
-12.131468 -15.408943 -5
-3.5972819 -30 -53.284813
5 -21.39872 -16.498856
17.265633 -5 24.913059
-38.148445 -15 -17.298897
-25 -23.207661 -25.378582
-8.684248 -5 -18.385921
5 -11.665965 -27.262829
-46.408062 -5 2.1309857
-32.876076 -8.6087399 -25
-42.388454 -15 -7.5323505
-25 -13.503242 -26.968002
-19.92893 -25.411085 -75
-15.049442 -25.61846 -75
-19.677227 -15.086605 -75
-57.328518 -15 20.261732
-3.681834 -30 -39.315079
-2.5848413 -13.60889 25
-9.5391474 -15 9.6600552
-5.5978284 -10 -66.197044
-57.005798 -15 -23.849924
-2.4467587 -30 -56.802483
-0.61739206 -18.420864 -5
17.045858 -15 -13.498518
-15.399626 -12.939466 25
-49.387947 -15 -16.620575
-0.49856949 -30 -7.5930533
-51.924934 -15 13.081242
-18.418373 -16.932194 -5
40 -8.5728292 -13.080453
-49.921638 -15 -21.182213
5 -17.988865 -20.264591
-24.334602 -4.9999995 -3.9873171
-14.261454 -30 -72.326935
17.962982 -15 13.297337
-5.4995317 -17.539534 -5
39.09436 -14.999999 -19.692083
27.686588 -11.57023 -25
22.967491 -5 24.415258
-21.902824 -30 -11.904926
-11.726913 -5 7.5856152
-23.851116 -5 -7.9854431
28.46382 -5 9.8908777
-56.247822 -5 17.515867
-2.5413704 -5 -6.1050987
-57.375637 -8.4965515 -25
-8.0288849 -5 20.704506
-23.596308 -30 -37.968475
36.067749 -5.2502823 -24.999998
5 -27.716949 -63.922752
-40.46426 -5 1.9752338
-23.254761 -10 -46.218876
1.1463418 -10 -66.582794
-25 -21.258694 -40.331062
-60 -5.6563511 12.736672
-1.3442607 -30 -54.345425
-56.78603 -5 7.9737306
28.41087 -15 22.711613
20.632725 -5 14.468372
-3.6464729 -5 21.13456
-7.9934049 -30 -40.856224
-25 -13.34927 -59.054596
5 -24.553385 -48.836903
5 -10.26129 -39.571869
-23.499054 -10 -52.223167
-57.704514 -15 6.4002132
-50.942596 -5 -15.858438
-25 -22.858494 -5.776392
-57.325546 -15 -24.533752
5 -28.079124 -52.636108
-5.035593 -10 -58.74321
21.534603 -15 21.022043
19.15226 -15 4.372478
-34.744659 -5 -24.926254
-59.094887 -5.445838 25
-56.549484 -15 2.7583771
2.8394167 -15 -2.658123
23.610085 -5 1.4028959
-10.278622 -15 9.6631298
13.791188 -15 21.244621
17.357433 -5 -13.337032
39.290218 -5 15.644008
-24.47522 -14.999999 24.242558
14.021955 -15 -7.2633791
-22.23074 -30 -68.691849
-22.797403 -30 -35.501335
38.585537 -15 15.246786
5 -21.30965 -68.672714
14.52404 -15 18.296431
6.2040806 -5 13.842817
-38.506012 -5 -17.315681
-11.644541 -30 -73.492599
-22.454865 -30 -61.445728
-15.772425 -30 -57.552322
-45.309803 -5 13.522739
-38.345852 -5 24.614714
-3.109129 -13.226019 -75
-19.368156 -30 -68.33007
5 -20.753845 -59.537842
3.9440873 -30 -73.879013
-60 -12.442612 2.8039224
5 -19.670532 -51.718819
30.096195 -15 -6.7925549
-60 -6.3195601 9.1667747
-21.019882 -30 -59.990406
-30.410734 -5 16.490496
15.027081 -5 -2.0441914
-25 -23.895893 -61.722298
-52.514816 -8.9811974 -25
0.99357128 -19.760214 -5
-22.742508 -15 11.089921
-5.113163 -30 -54.377411
-16.407516 -5 -9.4487724
5 -17.623066 -38.082504
-16.607986 -5 -12.135998
-3.4381008 -5 8.8831291
16.116512 -15 12.819174
-17.81929 -30 -12.577827
-58.883026 -10.504107 -25
-3.77986 -19.593716 -5
-34.437695 -7.459691 25
-1.4718323 -15 19.753719
40 -13.676377 19.73321
-4.7753735 -30 -70.965126
-43.265274 -5 0.075582504
3.4363317 -5 -5.9855347
-11.266973 -28.690832 -5
-25 -23.185699 -23.715544
40 -5.3052664 17.608894
0.32331133 -10 -64.728516
40 -13.743366 12.31718
-25 -19.846394 -36.659637
15.449322 -15 -8.3666267
-58.263851 -15 -5.8312035
5 -23.515253 -59.509979
27.196533 -5 -16.22464
5 -19.829689 -41.623497
-24.786198 -5 -19.244507
15.2577 -15 -12.990064
-14.959081 -30 -42.498161
-6.7476988 -30 -41.345425
-25 -25.387154 -59.583767
-52.118393 -15 9.6093197
-60 -11.337111 -7.6302881
-56.584747 -15 -9.8982878
40 -12.514833 22.666286
-60 -6.1076369 4.3621607
5 -17.58626 -20.701204
-3.2737169 -30 -13.956225
-7.6343384 -5 -14.209958
-4.9857368 -10 -37.290596
-7.1066165 -13.778364 25
36.318527 -5.973146 25
-12.904126 -10 -46.167095
-5.3986421 -10 -44.299271
24.750858 -15 -4.6851997
-5.5609522 -30 -14.762873
5 -23.261848 -44.465988
-37.933544 -10.077725 -25
7.6124878 -15 -16.612171
-4.196888 -5 9.3982954
40 -7.2832375 -11.091778
7.3812737 -15 -2.6916585
5 -11.663793 -62.604847
5 -20.356873 -39.017094
-58.031322 -5 -17.838898
16.714897 -14.170053 25
-43.403881 -15 -15.625456
-3.4455585 -5 7.7531376
-16.948341 -10 -49.404144
-13.320091 -30 -51.519165
5 -11.967472 -63.442039
-60 -6.501442 -6.9848652
-55.137314 -15.000001 -8.2643385
-4.0128174 -15 2.4291878
-60 -5.3073444 -7.6505461
-25 -12.313979 -69.903603
5.9796638 -15 -21.004862
34.170059 -5 -19.266449
-20.975388 -24.734348 -75
-30.238214 -15 -12.966833
-22.053984 -30 -55.563053
5 -14.03062 -50.66748
9.3287334 -5.1488533 24.999998
-16.004915 -5 -13.560966
-48.071873 -5 -12.315617
11.2654 -5 24.717178
38.815109 -5 6.591814
19.234997 -15 20.324932
-0.19743347 -5 -10.530128
1.6344795 -30 -22.522713
40 -7.0873466 17.223225
5 -21.55336 -37.479931
6.9417744 -5 20.771013
-41.299801 -5 -1.872489
-22.283319 -15 10.482887
20.447197 -5 -24.585707
15.185827 -5 -12.29142
39.60931 -5 21.087856
-22.691422 -15 3.3285666
-12.685331 -10 -54.224236
5 -20.763557 -47.262772
14.764005 -7.6183167 -25
8.0009356 -5 4.5771542
-25 -21.263365 -15.441701
-17.026844 -5 17.674263
-2.8682139 -29.388227 -5
-9.8583498 -10 -60.188656
-25 -24.730398 -63.607586
-32.530075 -10.880672 25
-21.718304 -30 -47.583012
-46.425045 -11.025293 -25
5 -15.119385 -74.54097
-3.8700042 -22.796185 -75
35.852104 -5 -8.4148788
28.798117 -14.38026 -25
-14.412986 -29.013895 -5
25.342129 -15 19.572809
-6.2523599 -23.208477 -75
29.420906 -15 0.96403074
-7.1311965 -30 -7.3554268
28.648661 -8.883563 -25
28.257591 -5 -17.583866
20.590118 -5 -11.265064
6.8061504 -5 20.257147
2.9517953 -22.55195 -75
-60 -14.540762 10.188374
-6.6072931 -15 15.987501
-25 -22.012722 -67.83226
-45.054394 -7.9575076 -25
2.5727463 -5 16.718874
33.49649 -5 4.1896601
5 -17.277384 -7.0082936
-25 -21.018456 -59.38813
33.555992 -5 18.778185
-39.253208 -15 -8.2878628
39.088089 -15.000001 -23.483246
-16.137341 -16.257694 -75
-25 -17.19945 -19.882118
-7.7557278 -10 -74.893303
5 -23.287411 -38.162121
-5.7964916 -5 18.983938
-3.3431718 -30 -51.838337
-41.845676 -5 14.136734
5 -24.528908 -20.804153
-31.926392 -5 9.3628225
-25 -23.327423 -29.007706
-23.78791 -30 -46.547935
-3.1984193 -30 -13.478384
35.672279 -7.2136145 -25
15.731966 -15 10.636951
40 -7.5037279 13.45882
-14.551155 -15.615341 -4.9999995
2.7226658 -5.5493641 -25
-7.9984016 -10 -52.466301
-59.553497 -5 -0.5529747
-57.997971 -15 -2.0316658
-1.9337935 -30 -59.039284
-23.122858 -30 -20.329763
6.4781818 -5 23.803318
-19.162415 -5 -12.73008
30.695059 -15 5.4469042
0.93652332 -23.859928 -5
-16.171883 -30 -71.835083
21.299845 -5 -10.829138
28.364716 -5 1.9189472
29.586365 -9.574728 -25
5 -21.037298 -53.27504
-5.3662014 -5 21.817276
-23.554405 -30 -73.084839
-17.542564 -21.862402 -75
29.334688 -5 -15.398979
-15.505766 -30 -28.914755
-12.568388 -5 -0.10676956
-11.543856 -5 -21.162525
-10.405352 -30 -15.092862
5 -27.548878 -42.71838
-35.050835 -5 8.4606285
-18.938835 -15 21.846603
15.64887 -6.7626271 24.999998
-25 -18.982346 -18.097059
-13.274462 -30 -72.340881
-14.113132 -10 -54.00441
-46.148605 -15 23.346651
-0.66148281 -5 -15.407074
16.781147 -15 -8.0831776
-3.2004871 -30 -36.264614
20.354958 -15 -10.443539
-54.099613 -5 -17.623487
-25.788134 -15 12.651532
5 -29.995449 -57.336914
-8.1352377 -15 13.657122
24.162983 -11.482424 25
-54.738632 -5 14.606925
-28.898174 -15 5.5656595
-4.2959661 -30 -6.1912823
-1.0612447 -18.136589 -75
5 -29.458445 -50.303562
39.283077 -11.737788 -25
5 -15.966522 -68.560425
-38.670734 -15 -4.2776918
-58.033936 -15 8.4151897
-31.021069 -5 10.043867
-18.533175 -15 17.024239
-50.514637 -15 -23.30817
-35.44521 -5 2.2189734
-21.431032 -5 17.257912
-25 -18.501392 -46.291519
-34.090355 -7.3268394 25
-25 -14.164944 -68.942474
22.044075 -15 11.518853
-2.9460564 -5.8126287 -25
-56.763363 -6.6471162 25
-6.2220249 -10 -38.394939
-30.1294 -15 1.2286582
-25 -20.39365 -8.7194138
-57.124397 -5 -21.79022
-17.963482 -15 18.311949
-37.91806 -5 -9.9996319
-18.646658 -10 -72.56498
-8.5313416 -30 -63.517967
-36.58271 -12.427368 25
36.793392 -5.6945124 -25
-31.51325 -8.3280201 -25.000002
-16.644211 -5 22.899025
-39.928539 -5 -6.0346322
-9.5026093 -10.940947 25
-17.159801 -15 -2.0829029
-4.7236295 -10 -59.563789
18.113781 -15 -10.040303
0.11182642 -30 -49.078354
-32.156883 -5 -15.444386
-30.221333 -5 -16.53513
26.185503 -15 17.735968
-16.841225 -15.710533 -4.9999995
-10.392967 -5 17.539843
-23.63839 -30 -57.68969
32.749241 -15 -19.3342
-46.925034 -15 21.697636
14.245815 -5 8.993865
6.5141783 -15 -1.6935663
-33.362434 -5 15.578903
9.5736904 -5 16.377636
-3.0872517 -15 10.035386
-41.789112 -15 -23.429506
-25 -14.465483 -30.754406
-17.877041 -10 -72.530571
11.691478 -15 -9.0432329
-4.4807181 -10 -53.567902
-27.510084 -15 -5.9255462
19.804173 -15 -9.9485178
5 -23.931822 -9.6141319
-10.981649 -30 -34.917614
-25 -29.398808 -38.592979
-31.334509 -5 3.1360946
5.7458944 -5 -19.728039
-49.192905 -5 -6.8161235
-27.69561 -14.207088 25
-51.777336 -12.610111 -25
37.853333 -13.17467 -25
-15.833683 -10 -42.585144
-20.229162 -29.999998 -31.616117
-25 -23.060173 -54.717331
-3.3658214 -30 -42.864052
-12.597821 -30 -8.6958618
-39.184319 -15 -6.3909187
-22.836418 -5 8.7418756
1.6723189 -10 -39.680008
-28.319981 -9.4739695 -25
-19.767071 -10 -26.285618
32.312134 -5 22.198166
-23.02879 -19.500385 -75
29.002337 -15 -13.834696
-60 -14.942869 -9.4255829
-9.3219213 -5 -21.984142
-29.751339 -15.000001 16.172974
5 -14.839073 -44.541035
-0.5838747 -5 -19.147892
4.9287052 -10 -47.566433
22.581778 -15 -15.620372
-46.093353 -10.784979 -25
-11.146409 -15 12.95249
15.690091 -13.155038 -25
-19.45392 -21.524918 -75
33.32151 -15 -7.0422463
-6.4671707 -5 -15.956909
-14.343804 -30 -42.926147
28.60886 -5 -7.4340591
18.791615 -14.482342 -25
-15.521016 -15 7.8722887
-18.392639 -10 -64.092178
-40.714977 -15 17.570658
-0.85045123 -30 -65.765045
-25.000002 -26.289921 -13.589986
-9.5422173 -30 -39.006268
-55.687092 -15 -11.969305
-15.796391 -30 -73.023811
-28.965538 -15 -21.328676
-40.477608 -15 14.808214
27.32066 -5 -13.571411
-34.673897 -5 16.623129
-54.289131 -15 22.173456
-47.086464 -5 -20.326008
5 -23.603144 -57.498505
37.527981 -6.7306108 25
-17.16814 -30 -24.863159
40 -11.380892 24.993694
-8.5545816 -10 -55.04657
-47.570686 -6.7793989 25
5 -20.618088 -51.60759
-57.690216 -14.999999 17.04891
19.807352 -15.000001 -20.140728
-19.496336 -30 -60.988743
-21.887587 -30 -18.339594
-28.358612 -5 3.8927946
0.78822136 -5 -3.8624592
23.093773 -15 -9.6838741
36.510426 -15 1.0961304
5 -18.198872 -24.359505
-50.368748 -7.5457869 25
5 -28.542128 -21.663963
10.766606 -5 5.7596149
-19.870289 -30.000002 -9.5047159
12.651125 -15 -0.3959806
-24.981663 -15 0.80158424
-9.5445023 -24.049519 -75
-5.9437523 -15 24.492931
-25 -20.051615 -54.170677
-13.182512 -15 3.7428701
23.915277 -14.311964 25
25.984106 -5 24.452061
-4.7229128 -10 -61.334511
-23.348745 -5 -2.7063627
-14.705894 -15 5.6194053
-25 -12.713976 -60.947166
-36.372532 -5 -15.870995
-60 -8.7712736 10.536236
5 -24.172718 -31.292805
4.5948973 -15 -0.1424377
-7.9085026 -15 24.603718
-25 -10.514224 -74.73217
-42.767315 -15 -15.724931
-25 -13.643435 -71.827583
-40.636333 -15 12.520737
-9.5514126 -15 9.8420782
5 -27.159977 -5.2779875
38.867325 -15 -2.4564753
-25 -25.446457 -38.173096
2.4537523 -10 -42.277405
33.253716 -10.396341 -25
40 -10.270847 -14.042801
40 -9.9922218 -20.588455
31.439898 -5 7.4787149
-1.5262728 -15 12.159794
3.1416535 -30 -74.417206
26.777464 -15 -15.742821
40 -9.8177376 2.678421
26.056684 -15 1.7937608
14.473356 -5 -11.305111
-17.389494 -10 -62.473717
19.501648 -5 -12.784393
-27.722229 -15 -11.390781
-2.3991411 -19.775951 -5
40 -7.5722046 16.269512
-2.7965736 -15 20.704603
-25 -13.257163 -27.099184
-30.154081 -15.000001 -13.786467
-36.833221 -11.211872 25
-20.788651 -30 -24.444065
-36.624279 -15 -24.240765
-12.805119 -30 -37.282593
5 -15.193263 -23.885212
-55.625397 -15 -15.66189
17.929291 -15 17.061613
-58.716248 -15 3.7912445
29.150057 -9.4333134 -25
-0.92253232 -10 -67.945442
-60 -7.1507297 8.6050911
-19.944757 -10 -74.784866
-25 -21.91399 -5.307446
-28.441441 -13.732105 -25
-14.042866 -5 16.75806
-35.024368 -5 3.9990513
-23.539303 -30 -18.600914
17.765476 -5 -3.2906837
-19.254412 -5 22.020586
-37.645187 -15 -20.88517
-25 -16.76115 -65.973412
-4.0671091 -10 -50.680874
4.0001688 -28.495857 -5
22.807835 -5 17.150019
6.3181505 -15 9.2092037
5 -20.523491 -20.371998
39.956112 -5 -3.5834045
-14.327858 -11.025648 -75
-60 -12.46261 12.762121
9.324708 -15 -7.1866598
14.50943 -5 18.544552
-51.276215 -15 24.948286
-41.886444 -5.9285917 -25
-60 -10.922932 -11.140274
-41.334854 -15 -13.939245
2.4413357 -5 24.766991
12.990727 -5 -17.95414
24.308197 -5 -11.584164
-5.2871308 -30 -18.633402
-9.6213226 -5 -20.149811
-5.2521839 -5 -11.820596
37.434227 -15 -21.308327
14.828022 -15 -21.202168
-12.394721 -30 -71.750732
-40.597931 -5 21.37883
-60 -10.346818 -0.36510277
-60 -12.335565 -21.472866
-9.1948881 -15 11.518898
-18.510824 -5 -2.7851982
31.111044 -15 21.14677
40 -8.0767384 4.5057316
-33.353539 -5 3.7949679
-42.891579 -15 -3.2109022
-23.735682 -5 -5.7342834
23.978855 -5 13.308691
-11.439667 -15 24.574055
-13.738591 -5 -7.180768
-25 -26.044626 -13.784276
-37.759499 -5 10.224347
11.989559 -5 18.473921
39.574394 -5 9.0483856
-13.426498 -10 -68.000008
-21.148464 -15 -4.9944563
18.257145 -15 -16.289429
29.633335 -15 -8.7644882
0.58242792 -28.006927 -5
-15.009174 -5 4.2182102
28.245632 -5 -15.078705
-7.4888921 -30 -65.353394
-46.115486 -14.999999 24.24593
40 -7.771019 -13.801444
40 -7.3149338 12.36327
38.074295 -5 23.564548
16.668161 -5 17.22883
-52.223431 -15 10.49505
-4.720984 -30 -30.61446
-41.448986 -5 10.371773
-20.803574 -30 -29.768612
9.5731239 -15.000001 -21.234018
-3.8588293 -14.772677 -75
-36.918564 -5 -5.2146564
-23.227989 -5 -14.273254
-37.411839 -15 -23.290688
-0.53047413 -30 -14.27634
-59.949615 -15 6.3726101
-22.222214 -30 -69.614227
5 -18.105091 -11.578196
1.253907 -15.396368 -75
15.103163 -15 -8.1258831
-22.160582 -5 9.783144
-24.999998 -27.895567 -68.908279
-14.850111 -5 -13.143138
-25 -14.123884 -28.94537
5 -16.453541 -40.511986
-23.556589 -10 -74.025665
-22.867386 -10 -69.356583
-8.9488182 -30 -35.803471
-1.0157037 -15 1.0607421
-25 -24.174093 -11.134277
-58.675491 -15 -10.353477
-50.111359 -5 -16.865362
-6.0223374 -30 -61.319199
2.8429494 -5 -14.578172
1.7704 -15 4.105145
-25 -16.642357 -39.112492
-32.52314 -15 -1.0606532
-60 -11.894405 -13.701392
10.699467 -5 19.815454
-4.7065272 -17.326038 -75
-7.365169 -15 1.1159472
-12.367416 -5 -6.8144703
32.819504 -5 -0.6787262
-35.391582 -15 -6.8089876
-17.640095 -5 10.835811
-19.587753 -30 -48.1315
9.5259323 -15 -4.0104485
-21.472038 -10 -37.332504
-8.83535 -30 -29.209064
39.185169 -5 -13.285222
31.719036 -14.220809 -25
15.079942 -10.957022 -25
0.94059372 -30 -55.53075
-8.9080925 -10 -57.271835
-5.8852186 -17.727715 -5
-59.071327 -14.999999 15.754583
-39.424156 -15 15.841835
-38.822536 -15 16.438238
4.8083367 -10 -68.069199
7.2074423 -5 -11.176852
2.2647743 -5 -12.053097
-27.337593 -15 -11.027647
-25 -19.126057 -50.24295
-5.0154362 -5 -8.3554039
-8.7778187 -22.592693 -75
-25 -16.607841 -69.589272
2.8346672 -15 -4.7928114
-17.430271 -15 6.5221453
38.394196 -5 -4.9767056
-3.0577083 -14.574552 25
2.9227328 -30 -31.115627
-44.333961 -10.779486 25
-57.466576 -15 24.050606
-38.658264 -5 8.3195457
26.431118 -11.364264 25
-60 -13.321912 -5.2862225
31.168798 -12.859372 -25
-17.566532 -10 -62.497135
40 -11.944417 10.165751
6.3305616 -15 -11.742617
14.817291 -5 -4.2549171
-43.82391 -5 -10.976257
1.2432899 -5.5540228 25
-30.467762 -5 -21.25927
37.162544 -15 -3.1158314
-8.2250681 -30 -11.412042
5 -20.1334 -19.336412
9.6946363 -11.551198 25
25.310204 -15 -4.3218851
37.031849 -15 7.2079601
10.090108 -15 -22.4785
1.9158506 -15 3.15961
28.16449 -5 6.3441391
-19.102222 -17.086941 -5
5.054287 -5 -17.649326
-37.233677 -5 18.558001
15.23825 -5 -17.940521
13.444943 -5 6.4949417
37.454414 -15 -4.4887171
-15.140751 -5 15.166514
-7.6875014 -30 -63.317955
-44.74036 -15 -11.614693
-2.6235485 -15 17.457415
-8.305892 -16.766617 -5
0.40576744 -10 -67.051834
-25 -24.376158 -37.988091
-60.000004 -8.1901951 -23.75227
-4.1765871 -15 13.954794
-60 -12.286237 12.983244
-25 -23.138739 -51.281227
-21.359676 -10 -33.949604
-15.495123 -5 1.2524185
-60 -13.665458 6.8928428
0.25618565 -15.702607 -75
28.428535 -15 -1.5886221
12.040108 -15 -4.5993247
-58.159389 -5 17.687487
-11.714447 -10 -57.712082
14.114202 -15 21.578964
5 -10.846055 -71.366966
36.390224 -15 20.32855
-22.036737 -15 0.98984432
24.988388 -5 -20.388363
5 -21.962029 -33.662327
-21.97612 -30 -56.373528
-5.7745395 -15 -1.1356416
-25 -12.793423 -29.114016
5 -20.63385 -13.745955
28.389778 -15 22.527603
-25 -17.42066 -23.672083
-49.117199 -15 19.466139
10.662008 -5 -8.3039351
4.9617481 -10 -38.208118
28.598886 -15 -16.515446
2.2975068 -18.286472 -5
-17.933376 -30 -35.918041
-1.3518381 -12.45464 -75
-56.516876 -5 -16.090191
-24.644436 -10 -57.272636
-0.79635715 -30 -9.3752069
-1.1318016 -5 24.221069
6.3125715 -5 -16.508858
-10.861574 -10 -64.486465
-44.025967 -15 -8.4019518
5 -23.801128 -33.823345
-22.990791 -5 -5.1340885
27.217089 -15 -13.490222
-15.93234 -30 -58.226936
-1.725047 -10 -71.234489
-22.847256 -10 -68.045532
-23.198839 -30 -49.762199
0.5067296 -30 -71.956612
-57.756283 -14.999999 18.24268
-12.807123 -5 1.8234015
-16.499065 -6.2306828 -25
-6.9228544 -29.850769 -75
1.7585955 -30 -48.289566
11.68647 -5 12.249234
38.80014 -7.6294069 25
26.133284 -5 15.031612
9.2349949 -15 1.3094714
20.136459 -5 -19.701509
-25 -29.044842 -58.302505
-45.776878 -5 4.709137
-22.689352 -30 -71.662018
-1.0819292 -15 2.1076732
-1.8493576 -15 10.278921
-6.3057327 -5 11.773239
-6.6252241 -30 -47.641083
-6.9328446 -18.207584 -5
4.6756926 -15 12.551372
-2.6750546 -5 9.5377998
-17.674339 -30 -37.995075
5 -20.378784 -73.11084
9.7671223 -5 10.174058
-16.514772 -5 -12.556591
16.384377 -5 16.968136
19.287172 -15 -15.636824
-6.7844386 -15 5.3592954
-12.625439 -10 -54.389664
-43.138458 -5 -19.915565
-6.9761558 -10 -58.662243
-47.698944 -15 3.6683817
-16.946245 -5 -8.0999174
11.426983 -5 24.308819
-42.21405 -5 5.0967627
-7.6672535 -15 17.087605
-8.0015478 -24.843725 -5
-25 -14.386676 -28.857271
10.031178 -15 4.1975389
-23.64728 -5 -4.5438051
-23.007502 -5 10.032514
-19.450336 -16.199707 -75
-37.257629 -15 9.3322535
-47.442318 -15 -16.770395
-14.13736 -8.8986397 -25
5.3300056 -5 14.970693
-25 -11.756964 -67.995827
-5.6374302 -5 19.595083
-12.979163 -5 -15.603333
3.8970399 -30 -32.813259
-21.053125 -30 -16.053665
-24.107742 -15 -2.9230008
-52.900257 -15 3.1494684
14.515129 -5 -11.429751
-20.171501 -9.9446335 -25
-7.0810704 -10 -59.447475
-45.436138 -13.809371 25
-30.38953 -15 -15.163834
-21.971996 -10 -74.427406
-49.558933 -5 -6.0423884
-43.580673 -5 -0.46845818
5 -24.804632 -10.147624
-48.546349 -15 0.40064812
-56.999161 -5 -20.772778
40 -5.7247844 15.774162
17.014729 -9.2164202 -25
-60 -5.2346239 2.3381224
-47.656479 -9.8760128 -25
-6.5685863 -15 13.984723
-25 -28.881813 -55.460342
-49.36908 -5 22.618221
7.9665747 -9.7701044 -25
-25 -21.480902 -61.551735
-6.3590078 -30.000002 -34.495026
-17.561749 -30 -55.486092
-58.74411 -5 -20.522619
-13.62301 -10 -30.373585
-20.155996 -10 -54.27298
2.4678726 -15 2.8356602
-22.412975 -30.000002 -22.747169
5 -16.944834 -21.493227
5.0000005 -12.284807 -74.374046
-60 -5.7261996 10.889541
-54.579704 -5 -14.075407
9.3745937 -14.505629 -25
-57.961147 -15 -6.9190502
-22.106152 -6.4399643 25
-22.078787 -5 11.796408
-52.40427 -8.2782383 25
-1.2173753 -5 -18.828548
-23.946869 -25.605652 -75
4.8924956 -30 -61.186535
3.6397181 -30.000002 -45.612724
5 -16.158098 -29.350588
-35.220043 -15 -7.5630627
8.3021898 -8.9399567 25
1.2571507 -15 15.981644
0.17637825 -5 24.334412
-25 -16.143732 -68.487122
16.063271 -5 20.078665
5 -14.030737 -51.146935
-25 -23.072569 -26.528254
-32.879658 -10.659627 25
9.4593468 -15 15.96662
19.131908 -15 10.501245
-9.5267258 -5.981123 -25
-24.170975 -15 -1.8596785
-10.457867 -10 -60.952251
1.9510705 -10 -63.271954
3.1714664 -25.083296 -5
-35.29298 -10.658674 25
-12.662377 -30 -42.974682
-8.7035522 -15 24.412739
-36.878189 -12.429986 -25
-1.6484981 -30 -60.954098
-25 -22.144894 -41.981773
-15.52429 -10 -69.418938
5 -27.86953 -59.466717
24.184217 -15 24.196865
-25 -25.558781 -31.625059
-28.02548 -15 -2.9928007
-22.348015 -10 -67.899933
-30.244255 -15.000001 14.50708
33.443459 -11.270308 25
-11.57091 -10 -49.163879
5.2644477 -5 -12.774494
-34.834702 -6.8633242 25
40 -14.808737 -17.324593
5 -23.309721 -7.2554545
5 -16.281569 -66.122894
31.251049 -5 -19.076439
-33.420624 -5 -18.942909
-30.828077 -15 11.778673
8.9547958 -5 -13.331612
6.4577732 -15 16.748989
33.55479 -5 9.6013145
34.561424 -9.0414143 -25
-48.505066 -15 -2.2306871
-25 -15.472897 -62.572662
28.778549 -15 -21.209211
-25 -18.89975 -74.867294
18.577055 -14.218734 25
-43.15049 -15 -24.640533
-41.667961 -15 -11.777028
-22.75168 -5 -2.1995811
-25 -14.119059 -37.01664
-55.676277 -15 24.535242
-57.408188 -15.000001 -0.23705006
-36.89682 -5 15.783897
6.6489315 -15 13.329531
-56.96759 -5 16.472113
-17.926802 -5 15.556743
-11.949297 -15 2.4253078
26.957886 -13.992876 25
-4.7383051 -10 -33.400166
33.45924 -15 12.466173
-25 -22.158484 -55.983925
-14.476809 -10 -60.420551
5 -20.197144 -72.585411
-6.5845242 -30 -20.066309
21.361687 -10.836645 25
-59.245464 -14.919346 -25
-13.875622 -30 -23.60737
-5.4169188 -30 -37.170399
-45.134277 -5 18.501257
1.7445366 -10 -51.273254
-59.999996 -7.5165887 9.7801991
21.960001 -7.6869006 25
-17.398624 -30.000002 -17.800781
-19.244438 -10 -38.108101
-28.005783 -5 11.700001
-16.332956 -15 0.25523615
-10.745209 -15 2.3833513
40 -8.4744673 18.189333
-41.4884 -14.999999 13.998953
-56.703072 -15 11.729382
-1.2446334 -30 -53.455017
-41.229694 -5 3.7032578
-17.512035 -10 -62.359867
-14.630873 -5 -12.179935
1.8259354 -30 -44.842155
20.288336 -15 21.917175
12.092726 -15 -21.688578
6.687747 -15 -18.2194
4.777564 -30 -23.345814
-49.911282 -5.9154091 25
-40.666965 -5 -0.49050045
39.449131 -15 2.802206
6.9764624 -5 -3.1705112
-53.520893 -14.34181 -25.000002
0.85163999 -10 -43.399723
5 -29.127354 -33.245743
22.442898 -14.332077 -25
-15.803774 -15 15.273035
0.41947746 -8.8463688 25
-32.170044 -10.630614 25
-24.561607 -15 17.444754
-6.7938538 -30 -65.860214
3.1403298 -30 -15.630503
-38.288643 -15 24.762602
36.096161 -5 22.237492
40 -11.064045 23.123699
5 -28.993603 -31.694855
-20.138325 -15 0.5671196
2.5133953 -30 -71.466057
-10.907672 -17.635067 -75
8.8515167 -5 -21.056549
40 -9.9397392 -16.314102
-17.143871 -19.879847 -5
-9.621686 -30 -39.360466
-17.854572 -22.501547 -75
7.5916653 -15 16.834562
-8.4450521 -15 -0.80320501
20.769638 -5 5.5610247
5.3733482 -12.465219 -25
-48.215256 -5 20.353308
-12.944763 -21.109768 -75
5 -19.154755 -62.077339
4.0164986 -5 24.473015
-60 -14.436983 -23.958527
-46.722572 -5 5.2333913
5 -22.470642 -13.645104
2.050149 -13.795064 -75
-6.6188183 -5 2.3850574
5 -29.936611 -39.293301
-54.344379 -5 14.941296
28.083447 -5 -16.216583
-25 -14.220324 -53.117695
-33.967468 -5 11.772372
-45.314903 -5 7.984551
-23.063202 -5 4.6051888
-60 -12.481121 10.230608
-25 -27.616798 -35.672836
32.209763 -5.2482014 -25
-34.59156 -15 -22.889206
-40.941833 -15 -8.5931282
25.678968 -11.270111 -25.000002
-60 -5.7762804 -14.332115
-17.436441 -5 14.828045
-25 -29.393923 -68.238846
-0.67845488 -10 -56.267841
-25 -14.672029 -44.217037
-16.204569 -30 -13.806404
5 -23.422031 -26.381151
-38.725941 -5 19.209705
-53.024773 -10.994637 25
-24.374836 -10 -72.373795
-54.293968 -15 14.602233
-47.429291 -13.10213 25
40 -12.084986 9.468154
33.029819 -6.723855 25
5 -26.266842 -31.914116
-20.51569 -15 19.779747
-60 -5.0057478 -5.0387955
-6.4419088 -30 -31.457476
-18.933849 -5 9.8567944
5.4964123 -10.599463 25
-35.586266 -8.4650669 25
3.8967071 -10 -35.730972
-15.761727 -30 -50.952209
-0.7922368 -30 -49.792519
-22.999954 -15 4.8015432
-20.275021 -30 -66.409981
-35.759987 -15 17.3864
12.818667 -15 1.8477235
5 -11.826693 -49.639408
9.1714382 -5 7.6376686
-13.725632 -10 -59.741364
-7.79426 -15 12.775072
-17.22978 -5 5.4560418
-20.595791 -10 -44.470951
-25 -15.865375 -18.964802
-5.396904 -10 -57.933949
1.624254 -30 -15.937078
37.48317 -15.000001 4.3087702
-25 -24.00758 -7.1086874
-16.41815 -30 -5.5932274
-2.2843604 -27.795208 -75
-38.061775 -15 2.5508051
31.553371 -5 6.0900507
-14.791677 -10 -31.379955
-22.604584 -5 -8.0744896
-25.154222 -5 4.8111811
-13.320627 -5 6.1977906
-0.70243669 -24.2211 -5
-20.257782 -30 -52.435822
-37.022049 -5 -2.8859587
-21.305553 -5 4.6114416
5 -20.281643 -27.615097
5.5648098 -15 -15.398697
-58.723427 -15 3.8279095
-47.208706 -5 4.1063485
-20.199791 -5 -6.8401871
-19.412189 -10 -37.089363
-40.637943 -15 -9.4626741
-7.4080257 -10 -67.247749
5 -20.956886 -21.786179
-30.503386 -15 16.404209
-11.890433 -22.53853 -5
31.513161 -5.0000005 -5.5598202
13.264709 -5 -15.418904
-15.531477 -5 -0.23174286
5 -15.693336 -14.599154
5 -13.739387 -48.790314
-25 -27.639778 -49.487297
-13.986915 -10 -26.803669
-49.657597 -15 3.9355903
5 -21.020004 -34.596527
-13.974731 -15 4.4344444
-25 -16.691797 -8.462121
-6.6277966 -15 2.139256
-10.956814 -26.209129 -75
-19.669926 -30 -39.309761
-22.741545 -12.445594 25
3.3404098 -10 -40.349213
-25 -21.312769 -14.891777
-42.777641 -15 16.01804
-17.261509 -10 -49.519779
-41.63409 -5 23.540977
-59.245972 -5 -22.340866
24.014462 -15 -5.4454479
5 -22.724743 -51.722584
-33.623466 -15 19.186062
-29.724339 -5 23.951572
-8.2823191 -30 -11.226663
-45.991932 -15 -19.868361
1.6130733 -5 20.969704
-38.176594 -15 15.392725
-6.5963192 -30 -23.675014
-11.103115 -30 -20.12689
-2.9004931 -10 -29.577919
10.916535 -5 -15.98177
21.565561 -5 5.1690283
40 -5.9343204 -22.667065
-7.8687859 -10 -70.214638
4.305903 -30 -60.719788
18.486933 -5 -18.161465
-25 -27.660162 -47.646923
7.1594334 -5.4372807 25
19.119701 -15 -13.16417
-55.8661 -5 -16.352203
-12.742339 -30 -65.231987
5.8882122 -5.0579872 -25
5.4228783 -5 22.843449
19.221958 -5 10.008774
-17.640549 -10 -73.02549
28.429123 -15 -1.1673017
-25 -21.008617 -25.216919
3.6262951 -5 21.128447
-4.9737005 -30 -68.34285
25.507427 -15 16.292477
19.714235 -5 -18.928585
-24.454353 -14.916695 25
-25 -24.278654 -25.772358
-35.490051 -15 -20.280506
-17.310059 -30 -24.277679
-21.673597 -5 23.079315
5 -20.835735 -34.146046
-11.742851 -30 -68.037621
38.358677 -5 -1.0147667
35.53297 -13.388513 25
26.835764 -15 -10.114554
-25 -23.51149 -9.8164892
-59.951637 -5 -6.896452
5 -25.435314 -22.620825
3.3846092 -5 23.74519
-59.999996 -7.7762585 -19.516542
5 -10.787536 -73.10675
-7.3997045 -30 -42.558525
-21.928368 -5 17.015007
-48.083084 -5 0.59187293
-52.995384 -5 11.967688
13.056549 -9.2972088 25
27.962984 -15 10.903437
25.466816 -15 12.798991
18.842396 -15 -1.5112536
40 -5.6508131 2.507688
-25 -23.12604 -14.416225
-30.191196 -14.099714 25
-8.1406012 -30 -55.57386
21.49337 -5 1.1524296
15.333214 -9.0913229 -25
-12.018869 -5 10.369517
5 -18.976753 -66.318024
7.017787 -15 5.8650079
7.6421852 -15 -5.5227976
-19.502802 -30 -65.160301
-25 -23.614857 -48.292503
-2.7544229 -14.139462 -75
40 -8.1005049 -3.0792089
14.447964 -5 17.507288
40 -11.832288 13.964548
-41.427086 -15 -10.623224
-59.141045 -5 21.399527
40 -9.9589977 -9.7384653
-25 -16.290543 -60.490417
-48.29644 -15 0.35738277
5 -16.277809 -41.398373
-12.283337 -10 -61.273624
-34.279694 -5 20.979126
-7.4930258 -30 -73.691086
-59.069027 -15 2.3504629
-24.095482 -5 -10.121178
5 -22.897659 -54.516521
15.147146 -15 -21.474892
3.9849434 -25.72657 -5
-17.987114 -13.857345 25
3.631433 -10 -28.571236
-53.977184 -5 6.2585545
5 -16.002186 -69.436821
40 -8.9834108 5.2125525
-14.641975 -10 -63.985981
26.825644 -12.91738 -25
-9.1181183 -10 -31.880217
-3.2334213 -30 -53.956696
-36.302975 -15 -24.925652
-60 -10.466328 -10.351238
-4.6801586 -5 -7.6614847
18.752392 -5 6.2684069
-43.581673 -7.8477468 -25
-25 -26.28968 -42.200336
-11.854616 -5 0.8013382
-55.677395 -15 -0.11493969
-25 -21.198692 -62.544945
14.173894 -5 9.5319328
38.847443 -9.5330238 -25
40 -7.990829 5.4237537
4.5899973 -27.927401 -75
-9.2099648 -15 1.862473
27.603729 -15 -20.022572
5 -26.707844 -21.02953
-36.760742 -5 -20.809067
10.478165 -5 12.33818
-17.650747 -29.999998 -31.314281
-9.5209579 -14.714888 25
-52.965553 -15 -21.188225
-60 -5.1757936 22.057295
12.310383 -5 -19.742474
-8.4828224 -15 23.637253
-8.2485237 -15 20.08382
2.1810632 -25.344915 -5
-24.999998 -27.02618 -59.228184
-60 -11.844329 -18.302383
-25 -17.11694 -18.232782
19.274473 -5 15.876558
4.0140181 -7.3682203 -25
39.999996 -14.312366 -8.5840998
-25 -11.172606 -26.257734
26.244932 -5 -12.142494
29.099436 -5 14.430103
-28.664873 -15 -2.2527237
5 -22.248182 -73.603745
-9.2202501 -30 -67.756485
2.3895183 -5 -15.419734
-13.200512 -23.83362 -75
-7.1866369 -30 -16.417915
40 -13.197426 -13.246392
5 -13.298476 -39.344875
40 -8.8565626 -10.930302
-60 -7.2631125 23.863913
-14.861521 -5 17.190897
-24.381142 -5 20.847515
-6.473866 -22.211683 -5
-38.547615 -5 -20.773853
26.343628 -15 -21.437536
-17.789776 -5 -11.166218
-25 -25.82798 -29.869162
17.801544 -5 -14.626019
-5.9611821 -30 -16.350391
-50.927475 -5 18.076374
-33.099361 -5 -6.1151223
-8.2904682 -7.719636 25
-26.475204 -15 -24.781736
7.1135445 -15 16.506638
-25 -16.89645 -44.92366
4.1800938 -5 1.934392
-25.000002 -18.381565 -15.473749
1.8921566 -5 23.647614
-22.647194 -10 -33.991314
-11.086332 -28.199697 -5
-19.660511 -5 -7.2486811
-17.202364 -28.187494 -5
-25 -29.928398 -73.020287
5 -19.317158 -50.174496
-20.522144 -20.145151 -5
40 -10.098434 15.588995
-17.363556 -27.358292 -75
34.299408 -15 -4.6273127
40 -10.154269 9.3663797
38.651333 -5 19.777113
-14.127561 -10 -64.834747
-18.911453 -30 -35.463245
30.379232 -15 9.8496656
-49.598488 -15 -20.370216
-12.46934 -10 -64.854935
17.103527 -13.06902 25
-10.457674 -10 -58.290157
-60 -8.8608942 -11.620748
8.5121546 -15 19.662666
-3.8176513 -30 -68.953529
-18.809769 -10 -42.415421
27.638309 -5 17.414417
0.18203521 -30 -66.085075
5 -26.439327 -31.716217
-23.953938 -30 -39.535206
17.062473 -13.108042 25
5 -13.389188 -31.4746
12.490548 -14.07385 25
-20.683556 -30 -34.360298
-0.74865341 -5 12.776373
-28.42297 -15 19.553432
-8.3360796 -30 -48.956413
-31.259117 -5 11.720892
-26.969328 -11.195772 -25
-36.144058 -5 -5.0706024
-58.381908 -5 18.485588
-37.642422 -15 21.124123
17.048422 -5 -8.4866219
-25 -19.142956 -64.914894
29.11215 -5 18.409817
-4.7497959 -10 -57.73597
-12.072806 -15 19.016573
40 -13.582158 -24.04475
-2.4905777 -5 21.010517
4.2952642 -5 -20.540623
-9.1713428 -26.069801 -5
-58.831726 -5 -3.0602961
5 -18.682076 -6.8002787
18.438671 -5 -21.33255
-60 -6.5883164 -6.7596741
-19.789104 -10 -54.50877
1.8808248 -10 -70.125092
-48.048733 -5 -20.41737
-28.042717 -5 -3.9224486
22.477047 -5 16.054726
2.0199709 -10 -48.600925
-25 -11.694687 -41.889465
-38.998085 -5 -11.727737
6.1413956 -5 6.7737808
-0.4759922 -30 -49.327808
5 -10.869688 -43.533718
-2.5950198 -30 -56.929733
-3.9246955 -30 -30.79427
-18.415123 -17.774075 -75
-12.720146 -10 -41.684517
-18.546717 -30 -13.980257
-15.533312 -15 7.0251036
-12.607125 -10 -39.632713
40 -7.5042601 -19.54752
-0.82034874 -10 -30.763891
-46.62574 -15 -10.817154
-2.4090264 -10 -51.396461
-7.3634911 -15 16.87779
-5.3412113 -21.254507 -5.0000005
28.603125 -5 8.2816305
22.913553 -5.7838774 25
-22.673817 -10 -59.302521
38.703873 -15 6.0209551
-14.568287 -18.892807 -75
9.6558037 -5 -5.2815075
-12.849228 -27.003988 -5
-32.354313 -5.6802106 -25
-23.681278 -30 -16.618664
10.732736 -15 8.3097048
-20.540237 -5 9.7149706
-12.767387 -10 -67.852913
25.229145 -15 24.869505
-25 -24.500908 -19.416977
27.144648 -12.71416 25
-56.687134 -15.000001 3.2464409
-59.763451 -5 17.047224
40 -13.022057 2.2781601
0.043211222 -30 -62.436447
20.909149 -10.012063 -25
-32.884388 -15 10.151845
-19.262432 -30 -25.584608
-2.6429935 -15 3.2284312
-45.794247 -15 24.698187
-5.166769 -30 -53.620693
-41.271019 -5 14.826557
-10.74493 -30 -16.389948
-24.017162 -5 23.445311
5 -29.487722 -37.32225
-12.175474 -5 16.273506
29.262569 -6.2148366 -25
28.63929 -5 -13.908626
-23.935942 -10 -35.485424
19.396648 -15 -8.1162624
25.524635 -11.424078 -25
-52.448959 -5 -24.827263
-25 -14.468026 -44.006218
11.831036 -15 -13.631235
40 -6.5997033 -17.826275
34.661915 -15 0.56983376
-13.513775 -5 23.510616
-53.208145 -5 4.0229864
-22.581329 -19.080246 -75
33.081715 -5 -23.600641
17.66061 -15 6.9190326
-32.916401 -5 2.4982109
-51.528431 -5 -9.2946043
40 -7.1402798 -22.136154
-54.400066 -5 4.5794296
-58.173244 -5 21.606035
-5.3252254 -10 -66.89135
-7.2373586 -10 -27.546154
-22.814894 -15 24.214279
13.082485 -15 -4.178875
5 -23.638313 -18.666859
1.8353022 -5 -24.822487
-19.598091 -30 -49.493282
5 -17.700451 -19.604008
40.000004 -14.995987 -7.5489197
1.9164791 -5 5.2556343
-26.826757 -15 21.240742
13.441231 -5 11.945532
-13.640044 -15.169027 -75
-38.937847 -5 22.346104
24.148069 -5 -18.804028
-20.960268 -15.000001 11.388439
-6.7688708 -30 -69.737862
28.875618 -15 -3.4683471
-60 -10.820906 -6.1173801
-60 -5.8921723 -23.885963
5 -27.648327 -44.399986
-3.6767278 -21.702602 -75
-20.258465 -30 -64.823029
-11.76194 -10 -67.095184
-20.877075 -30 -34.906307
23.150955 -15 4.7228513
-38.880028 -15 -2.4469995
5 -14.011292 -68.788269
-9.915926 -5 -21.484631
30.198433 -5 15.056091
-2.3310261 -5 23.904762
-21.415707 -30 -66.116699
-60 -13.989688 -15.669374
33.890392 -6.9666123 -25
29.641356 -5 -17.160965
-49.987617 -5 20.638361
-25 -24.937206 -68.221001
36.647339 -15 -5.8401279
-21.357033 -9.1515188 -25
-21.334635 -5 -1.9487734
-58.301075 -15 17.892704
-60 -14.530632 -9.041255
-25 -10.143328 -38.848412
-37.68026 -15 14.131718
-29.009315 -6.6141558 -25
-25 -26.121586 -35.787178
-45.603939 -15 -8.7295818
-21.320463 -24.006443 -5
-10.169951 -10 -74.622421
13.614426 -15 -4.6896744
-60 -14.909785 20.253201
-20.883307 -15 22.645542
3.0270948 -25.487602 -5
-23.94309 -30 -68.854248
6.770607 -5 19.71867
-26.787287 -5.5620708 25
-19.824892 -24.784451 -5
-46.882454 -15 -1.0862293
-5.2176857 -10 -42.902077
-7.0942106 -15 9.7237291
-25 -11.086096 -55.579525
-33.215797 -14.087723 -25
37.486107 -5.6286626 -25
2.0562668 -10 -62.148964
-23.514469 -10 -62.647427
-55.838108 -5 -4.6959567
-42.331329 -5 -13.488274
-9.7042637 -5 -23.150078
9.1112843 -15 -5.0737934
15.40746 -5 -2.2519054
-21.760891 -30 -52.156963
-60 -7.8425059 -20.526348
15.985548 -5 -21.359589
33.541187 -5 -19.616451
-47.749794 -10.60996 25
-25 -18.390926 -60.571316
-0.73351479 -5 9.4327126
-43.320961 -5 -9.8688145
-59.248844 -15 -18.745785
-8.8150864 -7.1723952 -25
-16.500786 -5 23.088047
-16.014427 -19.333351 -75
5 -10.597513 -34.793076
-39.650509 -8.3239431 25
11.312523 -15 0.70256782
28.517923 -15 -8.0920687
-57.95533 -5 14.18199
-13.136802 -30 -35.796238
14.517373 -8.8815107 -25
30.770714 -15 -13.0488
38.470165 -14.024705 25
-25 -11.848788 -45.538994
23.022421 -15 2.7623172
11.333267 -5 13.642193
5 -16.294804 -67.756409
-25 -16.515163 -55.162178
-18.524351 -30 -23.727592
7.6283398 -5 11.151603
5 -24.408775 -11.733572
-41.057381 -15 11.671702
38.164742 -15 11.413115
17.613424 -15 2.9628634
1.2940142 -5 -24.061195
5 -15.716654 -55.677288
-25 -28.118839 -5.0495586
24.423714 -5 11.918818
40 -6.7893906 -24.518898
20.099371 -15 23.372257
33.341255 -5 -20.75098
-10.604601 -5 6.5331993
-7.5401335 -10 -49.657223
40 -8.640728 16.625912
-57.149872 -5 10.400033
37.034462 -15 -15.668338
32.265083 -5 -5.682724
21.573841 -5 -22.369556
5 -15.725975 -20.694912
-22.258572 -10 -55.003483
4.3790846 -10 -58.539993
-23.569218 -10 -65.458344
-52.383202 -15 -9.5395393
5 -16.900017 -47.969666
-5.6889706 -30 -60.225533
-4.0314369 -5 -7.1686659
-23.187302 -30 -70.158783
38.924461 -7.7479053 -25
-50.476234 -15 -22.70949
-25.093052 -15 -0.098436356
-54.935745 -15 -11.603292
-1.361449 -10 -58.012035
-12.478458 -30 -41.742199
5 -29.952402 -8.1421824
-5.784833 -30 -35.506355
-0.84702873 -15 21.247688
5 -23.42915 -22.12347
-4.9890862 -6.9528241 -25
-60 -5.3315477 -12.81002
31.144983 -6.3911262 -25
-53.884056 -15 4.7384806
-19.968464 -15 24.863098
-53.989746 -14.999999 18.638842
-4.1596451 -5 22.322784
-0.6774683 -27.229584 -75
-60 -5.9630022 -10.518109
-11.529934 -10 -65.552361
-0.86939186 -29.006632 -5
5 -10.673212 -28.825039
5 -28.557781 -20.149075
-15.121079 -30 -22.892237
-37.51638 -15 -6.4836159
-53.035477 -15 15.938488
5 -16.455864 -32.350925
40 -7.3989105 -13.245068
-47.546398 -5 3.0411339
-20.940695 -30 -56.187374
-24.999998 -15.304099 -19.032476
5 -13.667147 -27.873528
1.9156146 -15 2.6733856
-7.335722 -13.681249 -75
-56.204548 -7.7145114 25
34.888008 -15 -8.5277596
2.6530128 -30 -42.205902
-7.016758 -30 -64.532791
2.0348783 -26.088697 -75
-25 -14.524427 -39.024796
-16.240614 -15 21.664415
-14.424005 -15 14.443859
25.106298 -4.9999995 -19.87598
-38.306561 -5 18.410389
-50.760601 -6.2040081 -25
-32.56707 -15 24.41967
-1.6819998 -30 -22.828323
-12.833607 -10 -68.391151
-35.024063 -5 8.904748
-36.352474 -7.4246364 -25
-8.0321712 -15 19.918745
-26.356068 -15 -7.5812988
-13.135752 -5 -6.3251266
-5.0145988 -26.92001 -75
14.566469 -5 -3.566473
-50.750172 -9.7569523 25
-25 -15.824649 -52.937614
22.564274 -5 -15.660732
23.232033 -15 -8.5539551
